-19.0606 2.374 -2.27733 674
-18.6937 2.3283 -2.17099 833
-18.7008 2.32918 -2.11194 1029
-18.7077 2.33004 -2.05287 1306
-18.7144 2.33088 -1.99377 1425
-18.7209 2.33169 -1.93465 1217
-18.7429 2.33442 -1.87719 904
-18.7646 2.33713 -1.81961 602
-18.3485 2.2853 -1.71782 500
-18.3385 2.28406 -1.65834 454
-18.3283 2.28279 -1.59894 470
-18.3336 2.28345 -1.54105 482
-19.2622 2.39911 -1.56434 541
-19.2674 2.39975 -1.50348 643
-19.2097 2.39257 -1.43751 513
-19.1988 2.39122 -1.37559 339
-0.745988 0.0929128 0.0717197 268
-0.950719 0.118412 0.07255 292
-0.950863 0.11843 0.0752406 290
-0.950999 0.118447 0.0779317 290
-0.951126 0.118463 0.0806232 290
-0.935548 0.116522 0.0839942 279
-1.11201 0.1385 0.282727 284
-1.09599 0.136505 0.283376 294
-1.07997 0.134511 0.283925 310
-1.07946 0.134446 0.287025 316
-1.06345 0.132452 0.287423 303
-1.06292 0.132386 0.29047 296
-1.06238 0.132319 0.293516 294
-1.06183 0.132251 0.29656 263
-9.635 1.24275 -3.64973 274
-9.6321 1.24238 -3.61369 275
-9.64372 1.24388 -3.5834 272
-9.64058 1.24347 -3.54742 265
-17.4634 2.25249 -4.66138 271
-17.4783 2.2544 -4.60619 291
-17.5081 2.25825 -4.55503 294
-17.5378 2.26209 -4.50373 270
-18.7635 2.42018 -4.32485 265
-18.7926 2.42393 -4.26913 302
-18.8063 2.42569 -4.20972 284
-19.3558 2.49657 -4.27257 405
-19.3694 2.49833 -4.21138 645
-19.3828 2.50006 -4.15013 762
-19.3807 2.49979 -4.0855 707
-19.3016 2.48959 -4.00443 802
-19.3144 2.49124 -3.9434 764
-19.327 2.49286 -3.88234 613
-19.3241 2.49248 -3.81808 550
-19.3209 2.49207 -3.75388 666
-19.3329 2.49362 -3.6928 753
-20.5319 2.64827 -3.86314 927
-20.5288 2.64787 -3.79525 1150
-20.5409 2.64943 -3.73033 1163
-20.5683 2.65297 -3.66823 1006
-20.5491 2.65049 -3.59756 861
-20.5143 2.64599 -3.52429 939
-20.5565 2.65144 -3.46484 942
-20.5986 2.65687 -3.40515 716
-20.1913 2.60434 -3.26945 655
-20.2793 2.61569 -3.21842 701
-20.1346 2.59702 -3.12915 965
-20.1446 2.59832 -3.06548 1143
-20.2166 2.6076 -3.01144 1084
-20.2107 2.60684 -2.94515 955
-20.2202 2.60807 -2.88124 842
-20.2295 2.60926 -2.8173 635
-19.7099 2.54225 -2.6779 465
-19.3453 2.49521 -2.56352 517
-19.3535 2.49628 -2.50236 494
-19.0347 2.45516 -2.3977 506
-19.0425 2.45616 -2.33753 599
-19.1747 2.47322 -2.29311 783
-19.1978 2.47619 -2.23442 745
-18.6904 2.41075 -2.11194 900
-18.6973 2.41164 -2.05287 1113
-18.704 2.4125 -1.99377 1199
-18.7105 2.41335 -1.93465 991
-18.7325 2.41618 -1.87719 699
-18.3638 2.36861 -1.779 511
-18.354 2.36735 -1.71939 470
-18.344 2.36607 -1.65986 378
-17.7553 2.29014 -1.54582 435
-18.3391 2.36544 -1.54248 493
-19.2516 2.48313 -1.56434 631
-19.2411 2.48178 -1.50216 731
-19.1991 2.47636 -1.43751 623
-19.1882 2.47496 -1.37559 389
-9.62951 1.28461 -3.64973 275
-9.62661 1.28423 -3.61369 275
-9.63822 1.28578 -3.5834 270
-9.63508 1.28536 -3.54742 266
-17.4081 2.32231 -4.76734 272
-17.4384 2.32636 -4.71652 311
-17.4686 2.33038 -4.66555 348
-17.4986 2.33438 -4.61444 359
-17.5133 2.33634 -4.55911 356
-17.543 2.34031 -4.50776 317
-17.5574 2.34222 -4.45229 283
-17.5716 2.34412 -4.39677 270
-18.7819 2.50558 -4.26913 292
-18.8567 2.51556 -4.22389 291
-19.3447 2.58066 -4.27257 349
-19.3584 2.58248 -4.21138 506
-19.3718 2.58427 -4.15013 580
-19.3697 2.58399 -4.0855 527
-19.2906 2.57345 -4.00443 568
-19.3034 2.57515 -3.9434 550
-19.3314 2.57888 -3.88554 445
-20.6819 2.75904 -4.09869 429
-20.6949 2.76079 -4.03324 497
-20.6924 2.76045 -3.9647 693
-20.7051 2.76214 -3.89922 808
-20.5171 2.73706 -3.79525 919
-20.5446 2.74074 -3.73324 980
-20.5566 2.74233 -3.66823 917
-20.5529 2.74183 -3.60037 863
-20.5489 2.74131 -3.53257 952
-20.5602 2.74282 -3.46755 1006
-20.5868 2.74636 -3.40515 811
-20.4739 2.7313 -3.3191 562
-20.4845 2.73272 -3.25432 694
-20.495 2.73411 -3.1895 830
-20.3192 2.71066 -3.09506 868
-20.205 2.69543 -3.01144 806
-20.2147 2.69672 -2.94752 744
-20.2087 2.69592 -2.88124 674
-20.218 2.69715 -2.8173 518
-19.3879 2.58642 -2.63352 509
-19.3498 2.58133 -2.56569 526
-19.327 2.57829 -2.50024 474
-19.1483 2.55446 -2.41426 419
-19.1562 2.55551 -2.3537 676
-19.1638 2.55652 -2.29311 969
-19.1712 2.55752 -2.23249 897
-18.7889 2.50651 -2.12505 623
-18.7958 2.50743 -2.06563 769
-18.6934 2.49377 -1.99377 785
-18.6999 2.49464 -1.93465 633
-18.8623 2.5163 -1.89226 433
-18.3689 2.45048 -1.78062 426
-18.3435 2.44709 -1.71939 397
-18.3335 2.44577 -1.65986 343
-19.1828 2.55906 -1.68157 378
-19.204 2.56189 -1.62232 451
-19.225 2.56468 -1.56296 586
-19.2145 2.56329 -1.50083 672
-19.2038 2.56186 -1.43878 574
-19.1929 2.56041 -1.37682 351
-0.919567 0.122674 0.118394 293
-0.950956 0.126861 0.121028 279
-0.950949 0.12686 0.123722 279
-0.950933 0.126858 0.126417 279
-0.950909 0.126855 0.129111 279
-9.60527 1.33158 -3.60796 250
-17.4413 2.41789 -4.78015 267
-17.4565 2.42 -4.72496 313
-17.4715 2.42208 -4.66972 351
-17.4864 2.42414 -4.61444 363
-17.5011 2.42618 -4.55911 356
-17.5308 2.43029 -4.50776 315
-17.5451 2.43228 -4.45229 288
-17.5593 2.43425 -4.39677 283
-18.4665 2.56001 -4.32142 253
-18.8466 2.61271 -4.35034 270
-18.8299 2.61039 -4.2835 312
-18.8436 2.61228 -4.22389 306
-19.3465 2.68201 -4.27607 303
-19.3602 2.6839 -4.21482 390
-19.3889 2.68789 -4.15693 429
-19.5861 2.71522 -4.13573 375
-19.5993 2.71705 -4.07372 442
-19.6123 2.71885 -4.01167 408
-19.6251 2.72063 -3.94958 390
-19.6377 2.72238 -3.88744 393
-20.6805 2.86694 -4.03324 428
-20.6934 2.86872 -3.96775 640
-20.706 2.87048 -3.90222 748
-20.5182 2.84444 -3.79821 604
-20.5303 2.84612 -3.73324 707
-20.5268 2.84563 -3.66537 744
-20.5385 2.84726 -3.60037 772
-20.5346 2.84671 -3.53257 835
-20.5614 2.85042 -3.47026 888
-20.5879 2.8541 -3.40781 795
-20.5834 2.85347 -3.34001 604
-20.4702 2.83779 -3.25432 658
-20.4807 2.83924 -3.1895 730
-20.398 2.82777 -3.10986 714
-20.4079 2.82915 -3.04527 593
-18.9756 2.63058 -2.76053 454
-19 2.63397 -2.70279 471
-19.0397 2.63948 -2.64719 494
-19.0483 2.64066 -2.58693 484
-19.212 2.66336 -2.54833 577
-19.1114 2.64942 -2.47268 637
-19.1194 2.65053 -2.41219 597
-19.1428 2.65377 -2.3537 806
-19.1349 2.65267 -2.29114 1107
-19.1423 2.6537 -2.23057 1002
-19.1651 2.65686 -2.17186 628
-18.7983 2.606 -2.06745 670
-18.8206 2.6091 -2.00973 667
-18.8427 2.61217 -1.95189 519
-18.8647 2.61521 -1.89393 472
-19.7601 2.73935 -1.92682 440
-19.7664 2.74022 -1.86427 363
-19.632 2.72159 -1.78797 425
-19.6379 2.7224 -1.72583 455
-19.5811 2.71452 -1.65797 455
-19.1959 2.66113 -1.56158 413
-19.1855 2.65968 -1.4995 459
-19.1904 2.66037 -1.43878 374
-1.0306 0.142873 0.282021 261
-1.03009 0.142802 0.284971 259
-9.55882 1.36546 -3.62661 251
-9.57046 1.36713 -3.59649 266
-9.58201 1.36878 -3.56633 262
-17.4462 2.49217 -4.78442 254
-17.4463 2.49219 -4.72496 298
-17.4614 2.49433 -4.66972 337
-17.4762 2.49645 -4.61444 352
-17.4909 2.49855 -4.55911 346
-17.5206 2.50279 -4.50776 307
-17.5501 2.50701 -4.45627 284
-17.5643 2.50903 -4.4007 273
-18.471 2.63856 -4.3251 263
-18.8356 2.69064 -4.35034 293
-18.8342 2.69044 -4.28709 323
-18.8479 2.69239 -4.22744 305
-19.3642 2.76615 -4.21827 292
-19.3776 2.76807 -4.15693 317
-19.5747 2.79622 -4.13573 292
-20.1704 2.88132 -4.1991 353
-20.1224 2.87446 -4.12219 389
-20.2891 2.89827 -4.09046 406
-20.978 2.99667 -4.16491 427
-20.2996 2.89977 -3.95875 441
-20.6813 2.9543 -3.96775 559
-20.694 2.9561 -3.90222 661
-20.5678 2.93809 -3.81004 581
-20.58 2.93982 -3.74487 606
-20.5149 2.93052 -3.66537 602
-20.5112 2.92999 -3.59756 669
-19.8899 2.84124 -3.41938 742
-19.9008 2.8428 -3.35637 774
-20.5759 2.93924 -3.40781 710
-20.5868 2.9408 -3.34262 581
-20.4738 2.92465 -3.25688 522
-20.4688 2.92393 -3.1895 548
-19.55 2.79269 -2.97672 560
-19.5751 2.79627 -2.91721 597
-18.9645 2.70905 -2.76053 504
-18.9889 2.71254 -2.70279 567
-19.0287 2.71822 -2.64719 639
-19.1924 2.7416 -2.60911 660
-19.1853 2.74059 -2.54616 873
-19.1935 2.74176 -2.4854 849
-19.2015 2.74291 -2.42461 725
-19.1161 2.73071 -2.35167 828
-19.1237 2.7318 -2.29114 1090
-19.1156 2.73063 -2.22865 984
-19.1228 2.73167 -2.16811 602
-18.8029 2.68597 -2.06927 520
-18.8096 2.68693 -2.00973 524
-0.991453 0.141628 0.0217319 465
-19.7421 2.82014 -1.98935 512
-19.7642 2.82329 -1.92845 594
-19.7705 2.82419 -1.86585 488
-19.6362 2.805 -1.7895 483
-19.6265 2.80361 -1.72583 531
-19.5697 2.7955 -1.65797 534
-19.5751 2.79628 -1.59599 471
-19.5804 2.79703 -1.53399 344
-19.5073 2.78659 -1.46559 261
-1.33898 0.191272 0.0387861 256
-1.33923 0.191307 0.0427202 256
-9.53853 1.40268 -3.62083 267
-9.53555 1.40224 -3.58502 302
-9.56167 1.40608 -3.56064 285
-9.58774 1.40992 -3.53614 251
-17.451 2.56623 -4.66972 279
-17.4658 2.56842 -4.61444 294
-17.4805 2.57057 -4.55911 286
-17.7828 2.61504 -4.58026 254
-17.7822 2.61495 -4.51994 251
-18.7976 2.76426 -4.59618 273
-18.8274 2.76864 -4.5404 293
-18.8266 2.76853 -4.47699 251
-18.8256 2.76838 -4.41364 258
-18.8244 2.7682 -4.35034 317
-18.8382 2.77024 -4.29068 351
-18.913 2.78123 -4.24515 331
-18.9265 2.78322 -4.18521 299
-19.3526 2.84588 -4.21827 257
-19.3814 2.85011 -4.16033 266
-20.1584 2.96437 -4.1991 326
-20.9383 3.07906 -4.29773 350
-20.9673 3.08333 -4.23454 499
-20.9808 3.08531 -4.16806 570
-21.0709 3.09856 -4.11705 556
-21.084 3.10048 -4.05024 679
-21.0969 3.10238 -3.98339 554
-20.5556 3.02278 -3.81004 618
-20.5677 3.02456 -3.74487 630
-20.5951 3.02859 -3.68252 552
-20.4218 3.00311 -3.58351 622
-19.878 2.92314 -3.41938 697
-19.8889 2.92475 -3.35637 716
-20.5482 3.0217 -3.40515 591
-20.6055 3.03011 -3.34785 495
-19.4413 2.85893 -3.08765 413
-19.4358 2.85811 -3.02352 470
-19.5538 2.87547 -2.97918 508
-19.5789 2.87915 -2.91963 577
-18.9377 2.78487 -2.75816 529
-18.9621 2.78845 -2.70047 604
-19.0173 2.79657 -2.64719 669
-19.1809 2.82063 -2.60911 751
-19.1738 2.81959 -2.54616 989
-19.182 2.8208 -2.4854 965
-19.1901 2.82198 -2.42461 811
-19.1979 2.82313 -2.3638 764
-19.1123 2.81054 -2.29114 905
-19.1042 2.80935 -2.22865 792
-19.1114 2.81041 -2.16811 481
-19.7876 2.90984 -2.18593 400
-19.7947 2.91088 -2.12322 472
-20.0507 2.94854 -2.08806 474
-19.7459 2.90372 -1.99103 599
-19.7524 2.90467 -1.92845 687
-19.7899 2.91018 -1.869 571
-19.8116 2.91337 -1.8078 481
-19.7239 2.90048 -1.73616 518
-19.7608 2.90591 -1.6765 555
-19.5634 2.87688 -1.59599 421
-19.5687 2.87766 -1.53399 305
-1.69675 0.249514 0.238913 274
-1.69637 0.249458 0.243989 283
-1.69598 0.2494 0.249063 255
-0.72718 0.106935 0.178556 252
-0.726994 0.106907 0.180543 266
-0.726802 0.106879 0.18253 277
-0.726604 0.10685 0.184516 285
-0.7264 0.10682 0.186501 280
-0.726189 0.106789 0.188485 257
-8.81802 1.33543 -3.46626 253
-8.82916 1.33711 -3.43846 266
-8.8402 1.33879 -3.41063 283
-8.85116 1.34045 -3.38276 250
-9.51785 1.44141 -3.61504 273
-9.52944 1.44317 -3.58502 311
-9.54094 1.44491 -3.55495 284
-16.3535 2.47662 -4.42532 250
-18.7855 2.84494 -4.59618 301
-18.8153 2.84945 -4.5404 315
-18.7993 2.84703 -4.47325 270
-18.8288 2.85149 -4.41733 267
-18.8428 2.85361 -4.35762 316
-18.8719 2.85802 -4.30145 336
-18.9009 2.8624 -4.24515 343
-18.9144 2.86445 -4.18521 339
-18.9277 2.86647 -4.12523 272
-21.0335 3.18538 -4.39047 341
-20.9402 3.17125 -4.30098 479
-20.9539 3.17332 -4.23454 640
-20.9674 3.17536 -4.16806 690
-21.0727 3.19132 -4.12016 723
-21.0705 3.19098 -4.05024 866
-21.068 3.1906 -3.98038 735
-20.5424 3.111 -3.81004 625
-20.5545 3.11284 -3.74487 603
-20.3663 3.08434 -3.6425 526
-20.4087 3.09076 -3.58351 600
-20.4202 3.0925 -3.51877 608
-20.817 3.15259 -3.52178 685
-20.8283 3.1543 -3.45574 607
-20.6077 3.12089 -3.35046 477
-19.3671 2.93301 -3.0774 493
-19.3615 2.93217 -3.01346 465
-19.6031 2.96876 -2.98905 558
-19.5973 2.96787 -2.92446 611
-19.6221 2.97164 -2.86467 570
-19.6468 2.97537 -2.80476 689
-19.6558 2.97674 -2.74245 798
-19.6337 2.97338 -2.67568 704
-19.1615 2.90188 -2.54616 893
-19.1698 2.90313 -2.4854 889
-19.1778 2.90434 -2.42461 761
-19.1856 2.90553 -2.3638 671
-19.1156 2.89493 -2.29311 636
-19.1075 2.8937 -2.23057 539
-20.2184 3.06194 -2.30293 548
-20.0237 3.03245 -2.2151 479
-20.0309 3.03354 -2.15159 562
-20.0379 3.03459 -2.08806 609
-19.9824 3.02619 -2.01781 545
-19.7553 2.99181 -1.93007 607
-19.7772 2.99512 -1.869 530
-19.7989 2.99841 -1.8078 497
-19.7892 2.99694 -1.74354 521
-19.7637 2.99308 -1.67793 592
-19.7537 2.99155 -1.61388 420
-19.6654 2.97818 -1.54327 250
-1.36581 0.206843 0.238594 262
-1.36544 0.206786 0.242618 264
-8.83367 1.3812 -3.41063 275
-9.4817 1.48253 -3.60348 265
-9.50782 1.48661 -3.57928 305
-9.51929 1.4884 -3.54926 283
-18.7413 2.93032 -4.58851 305
-18.771 2.93498 -4.53282 309
-18.7854 2.93723 -4.47325 272
-18.8453 2.94658 -4.4247 290
-18.8441 2.9464 -4.36126 336
-18.8732 2.95095 -4.30505 328
-18.8869 2.95309 -4.24515 323
-18.9004 2.9552 -4.18521 347
-18.9137 2.95728 -4.12523 310
-21.018 3.2863 -4.39047 385
-20.9248 3.27173 -4.30098 578
-20.9384 3.27386 -4.23454 727
-21.0439 3.29035 -4.18698 762
-21.0572 3.29243 -4.12016 859
-21.0549 3.29208 -4.05024 995
-21.0371 3.28929 -3.97738 927
-21.0344 3.28886 -3.90762 754
-21.0314 3.2884 -3.83793 660
-21.0283 3.28791 -3.76829 651
-20.8863 3.26571 -3.67343 534
-20.7748 3.24828 -3.58503 651
-20.8016 3.25247 -3.52178 805
-20.89 3.26629 -3.46905 730
-20.5925 3.21977 -3.35046 589
-20.6341 3.22627 -3.29021 517
-20.7372 3.2424 -3.2398 527
-20.7476 3.24402 -3.17396 567
-20.7268 3.24078 -3.10326 655
-20.7368 3.24233 -3.03746 650
-19.6323 3.06964 -2.80476 741
-19.6413 3.07105 -2.74245 844
-19.6346 3.07001 -2.6779 725
-19.6123 3.06651 -2.61124 626
-19.1556 2.99511 -2.4854 581
-19.8615 3.10548 -2.51778 587
-19.8696 3.10675 -2.45474 579
-20.3898 3.18808 -2.45674 568
-20.1648 3.1529 -2.36319 664
-20.2035 3.15895 -2.30293 751
-20.2109 3.16011 -2.2388 644
-20.0005 3.12722 -2.14982 636
-20.0231 3.13074 -2.08806 661
-20.0609 3.13666 -2.02786 612
-20.0053 3.12796 -1.95769 536
-19.8404 3.10218 -1.87687 452
-19.7998 3.09584 -1.80933 406
-19.7746 3.09189 -1.74354 422
-19.7491 3.08791 -1.67793 478
-19.7547 3.08877 -1.61525 327
-1.17503 0.183724 0.248413 273
-1.17462 0.18366 0.251832 307
-1.15869 0.181168 0.253289 297
-1.15827 0.181103 0.256655 270
-0.721894 0.112873 0.214216 261
-0.752521 0.117662 0.221 256
-8.813 1.41771 -3.40476 269
-9.48662 1.52607 -3.57355 273
-9.51266 1.53026 -3.54926 260
-18.7282 3.01273 -4.58851 255
-18.7579 3.01751 -4.53282 250
-18.8737 3.03613 -4.24515 265
-18.8872 3.0383 -4.18521 310
-18.9005 3.04044 -4.12523 288
-19.9366 3.20712 -4.29281 253
-19.9655 3.21177 -4.23283 260
-21.0033 3.37872 -4.39047 388
-20.9102 3.36373 -4.30098 558
-21.0157 3.3807 -4.25375 693
-21.0292 3.38287 -4.18698 771
-21.0272 3.38255 -4.11705 829
-21.0249 3.38218 -4.04719 961
-21.0224 3.38178 -3.97738 962
-20.989 3.37641 -3.90171 842
-21.0014 3.3784 -3.83502 827
-20.9982 3.37789 -3.76543 853
-20.9333 3.36745 -3.68467 731
-20.8834 3.35943 -3.60711 645
-20.7871 3.34394 -3.52178 779
-20.8754 3.35814 -3.46905 829
-20.5781 3.31031 -3.35046 694
-20.6197 3.317 -3.29021 592
-20.7228 3.33358 -3.2398 589
-20.7177 3.33276 -3.1715 660
-20.6969 3.32942 -3.10084 710
-20.6759 3.32605 -3.03036 784
-20.6702 3.32512 -2.96235 967
-20.6797 3.32665 -2.89669 1024
-20.658 3.32316 -2.82655 968
-20.6516 3.32213 -2.75876 757
-20.4745 3.29365 -2.66771 638
-19.8477 3.19281 -2.51778 622
-19.8713 3.19661 -2.45677 611
-20.3911 3.28022 -2.45871 791
-20.399 3.2815 -2.39394 743
-20.1894 3.24778 -2.30293 756
-20.1968 3.24898 -2.2388 666
-20.1885 3.24764 -2.17287 661
-20.1179 3.23627 -2.10013 698
-20.0625 3.22737 -2.02953 647
-20.0691 3.22843 -1.96581 501
-19.9977 3.21694 -1.89419 361
-19.786 3.18289 -1.80933 259
-1.21105 0.194816 0.0540806 278
-1.21125 0.194848 0.0576177 292
-1.21143 0.194878 0.0611554 292
-1.03906 0.16715 0.180981 261
-1.05447 0.169627 0.185035 259
-1.06985 0.172102 0.189188 258
-0.77256 0.124278 0.180812 252
-0.772367 0.124247 0.182949 252
-1.11249 0.178961 0.237747 322
-1.11211 0.178901 0.240968 394
-1.12725 0.181336 0.246099 411
-1.11134 0.178777 0.247408 391
-1.11094 0.178712 0.250626 346
-1.11053 0.178646 0.253842 269
-8.8069 1.45507 -3.40476 251
-0.706279 0.116691 -0.0449804 255
-0.706789 0.116775 -0.0430525 264
-0.707293 0.116859 -0.041123 266
-0.707791 0.116941 -0.0391919 251
-19.3479 3.19665 -4.35853 259
-19.3617 3.19893 -4.29704 312
-19.3754 3.20118 -4.2355 280
-19.9228 3.29164 -4.29281 278
-19.9517 3.29641 -4.23283 265
-21.0958 3.48543 -4.41357 338
-21.1862 3.50037 -4.36274 541
-21.2153 3.50518 -4.29858 741
-21.229 3.50744 -4.23112 799
-20.9973 3.46916 -4.11395 752
-20.995 3.46879 -4.04413 869
-20.9925 3.46837 -3.97437 916
-20.9591 3.46285 -3.89875 904
-20.9715 3.4649 -3.83211 990
-20.9222 3.45676 -3.754 1032
-20.9188 3.45619 -3.68467 954
-20.8844 3.45051 -3.60987 818
-20.8959 3.45241 -3.54347 781
-20.9072 3.45427 -3.47704 886
-20.9491 3.46119 -3.41579 831
-20.96 3.46299 -3.34919 656
-21.0169 3.4724 -3.29009 746
-21.0428 3.47669 -3.22574 909
-21.0377 3.47584 -3.15642 771
-20.6616 3.4137 -3.03036 882
-20.6713 3.4153 -2.96467 1127
-20.6654 3.41432 -2.89669 1133
-20.6437 3.41074 -2.82655 1051
-20.5754 3.39945 -2.75008 949
-20.5842 3.40091 -2.68467 778
-20.4689 3.38187 -2.60267 686
-20.3843 3.36789 -2.52548 646
-20.377 3.36667 -2.45871 918
-20.4624 3.38079 -2.40355 948
-20.5012 3.38719 -2.34225 844
-20.1984 3.33716 -2.24062 547
-20.1901 3.3358 -2.17465 588
-20.1195 3.32413 -2.10185 648
-20.1108 3.32269 -2.03623 574
-20.164 3.33148 -1.97718 444
-20.1704 3.33254 -1.91309 299
-1.1009 0.18189 0.18186 333
-1.1007 0.181857 0.185048 357
-1.10049 0.181823 0.188234 358
-1.10028 0.181787 0.19142 353
-1.10005 0.18175 0.194606 285
-0.865592 0.143013 0.186865 254
-0.803144 0.132695 0.183642 300
-0.802943 0.132662 0.185878 302
-0.802734 0.132627 0.188113 299
-0.818064 0.13516 0.191912 302
-0.817837 0.135122 0.194196 290
-9.81395 1.66459 -3.60103 250
-1.82812 0.310076 -0.534776 264
-1.81551 0.307937 -0.523756 339
-1.8175 0.308275 -0.518279 478
-1.81947 0.30861 -0.512795 635
-1.82143 0.308942 -0.507304 675
-1.82337 0.309271 -0.501808 667
-1.82529 0.309597 -0.496305 687
-1.8272 0.309921 -0.490797 669
-1.84384 0.312743 -0.490455 595
-1.84573 0.313064 -0.484887 527
-1.83282 0.310873 -0.474234 480
-1.83465 0.311185 -0.468702 489
-1.83647 0.311494 -0.463163 446
-1.85311 0.314315 -0.462556 296
-0.704737 0.119534 -0.0488312 261
-0.705258 0.119622 -0.0469066 292
-0.705774 0.11971 -0.0449804 322
-0.706283 0.119796 -0.0430525 343
-0.706787 0.119882 -0.041123 361
-0.707285 0.119966 -0.0391919 352
-0.707776 0.120049 -0.0372592 341
-0.708262 0.120132 -0.0353249 334
-0.708741 0.120213 -0.0333891 314
-0.709215 0.120293 -0.0314518 273
-19.334 3.27934 -4.35853 268
-19.3479 3.28169 -4.29704 321
-19.3615 3.284 -4.2355 297
-19.9086 3.37679 -4.29281 267
-21.1875 3.59373 -4.43667 436
-21.2016 3.59611 -4.36925 707
-21.2154 3.59846 -4.30178 959
-21.2138 3.59818 -4.23112 1028
-21.2272 3.60045 -4.16361 949
-21.1638 3.5897 -4.08079 834
-20.9162 3.5477 -3.96235 891
-20.9288 3.54984 -3.8958 960
-20.8951 3.54413 -3.82048 1095
-20.8919 3.54358 -3.75114 1240
-20.8578 3.53779 -3.67624 1196
-20.8695 3.53977 -3.60987 1027
-20.8809 3.54172 -3.54347 913
-20.8922 3.54363 -3.47704 939
-20.9495 3.55335 -3.41841 908
-21.0066 3.56303 -3.35944 834
-21.0019 3.56223 -3.29009 1007
-21.0124 3.56401 -3.22327 1211
-21.0072 3.56314 -3.154 1022
-20.6932 3.50987 -3.03746 952
-20.6565 3.50366 -2.96467 1124
-20.666 3.50527 -2.89896 1081
-20.6135 3.49636 -2.82434 1050
-20.5607 3.4874 -2.75008 1093
-20.585 3.49152 -2.68679 983
-20.6245 3.49823 -2.62545 862
-20.571 3.48916 -2.55175 812
-20.3624 3.45377 -2.45871 856
-20.4478 3.46825 -2.40355 1082
-20.502 3.47745 -2.34412 1016
-20.5096 3.47873 -2.2789 648
-20.2842 3.44051 -2.18706 482
-20.1206 3.41276 -2.10358 482
-20.1119 3.41128 -2.0379 403
-20.1496 3.41767 -1.97718 313
-1.11092 0.188429 0.237747 283
-1.12605 0.190995 0.24283 295
-1.12567 0.19093 0.246099 304
-1.12527 0.190863 0.249368 296
-1.10938 0.188167 0.250626 273
-9.8054 1.71425 -3.60103 250
-9.81691 1.71626 -3.56997 255
-0.715245 0.125044 -0.0668113 261
-0.715822 0.125145 -0.064851 324
-0.716393 0.125245 -0.0628889 340
-0.716958 0.125343 -0.060925 337
-0.717516 0.125441 -0.0589593 338
-0.718069 0.125538 -0.0569918 367
-0.718615 0.125633 -0.0550226 395
-0.719155 0.125728 -0.0530516 406
-0.719689 0.125821 -0.0510788 418
-0.720217 0.125913 -0.0491044 427
-0.720739 0.126004 -0.0471283 431
-0.721255 0.126095 -0.0451506 410
-0.721764 0.126184 -0.0431712 355
-0.722268 0.126272 -0.0411902 325
-0.722765 0.126359 -0.0392076 311
-0.723256 0.126445 -0.0372234 279
-18.5184 3.23751 -4.48361 253
-19.8178 3.46468 -4.40886 269
-19.8622 3.47245 -4.35265 274
-19.8912 3.47752 -4.29281 260
-21.1396 3.69577 -4.50069 299
-21.1691 3.70092 -4.43667 561
-21.2137 3.70872 -4.37575 896
-21.197 3.7058 -4.30178 1174
-21.2106 3.70818 -4.23427 1266
-21.224 3.71052 -4.16672 1189
-21.2372 3.71283 -4.09912 1011
-21.143 3.69636 -4.01044 897
-20.8799 3.65037 -3.88988 1026
-20.8769 3.64985 -3.82048 1284
-20.8737 3.64929 -3.75114 1477
-20.8396 3.64332 -3.67624 1455
-20.8513 3.64536 -3.60987 1270
-20.9242 3.65811 -3.55432 1112
-20.9355 3.66009 -3.48769 975
-20.9466 3.66203 -3.42102 889
-20.9883 3.66931 -3.35944 893
-20.999 3.67118 -3.29261 1122
-20.9941 3.67032 -3.22327 1307
-20.9735 3.66673 -3.15158 1188
-20.9219 3.6577 -3.07533 961
-20.87 3.64863 -2.99944 1084
-20.8796 3.65031 -2.93298 954
-20.5801 3.59795 -2.82212 811
-20.5582 3.59413 -2.75225 971
-20.5825 3.59837 -2.68891 1032
-20.6066 3.60258 -2.62545 1016
-20.615 3.60405 -2.55984 905
-20.5613 3.59467 -2.48631 733
-20.43 3.5717 -2.40355 959
-20.4841 3.58118 -2.34412 904
-20.5072 3.58521 -2.28072 640
-20.3441 3.55669 -2.19592 382
-20.2736 3.54437 -2.12254 311
-1.50559 0.263218 0.0678453 258
-1.50575 0.263245 0.0723335 258
-1.06883 0.18686 0.16448 303
-1.06869 0.186835 0.16757 300
-1.06853 0.186808 0.17066 300
-1.08394 0.189502 0.174617 305
-1.08377 0.189472 0.177755 264
-0.700387 0.12527 -0.0603429 290
-0.700943 0.12537 -0.0584287 334
-0.701493 0.125468 -0.0565127 340
-0.702038 0.125566 -0.0545949 344
-0.702577 0.125662 -0.0526754 377
-0.703109 0.125757 -0.0507541 395
-0.718658 0.128538 -0.0530516 401
-0.719192 0.128634 -0.0510788 409
-0.719719 0.128728 -0.0491044 413
-0.720241 0.128821 -0.0471283 415
-0.720756 0.128913 -0.0451506 389
-0.721266 0.129005 -0.0431712 322
-18.3411 3.28047 -4.6287 318
-18.3709 3.28579 -4.57417 281
-18.5207 3.31259 -4.48739 257
-19.7433 3.53126 -4.39488 268
-19.8637 3.55279 -4.3561 267
-19.8927 3.55798 -4.29621 261
-21.1402 3.78111 -4.50404 322
-21.1697 3.78638 -4.43997 629
-21.2142 3.79435 -4.379 1013
-21.2128 3.7941 -4.30818 1263
-21.2112 3.79381 -4.23742 1338
-21.2246 3.7962 -4.16982 1315
-21.2378 3.79857 -4.10218 1132
-21.2355 3.79815 -4.03149 916
-20.8655 3.73197 -3.88988 1043
-20.8625 3.73144 -3.82048 1277
-20.8593 3.73087 -3.75114 1475
-20.8252 3.72476 -3.67624 1520
-20.8369 3.72685 -3.60987 1366
-20.8483 3.7289 -3.54347 1140
-20.8442 3.72817 -3.47438 901
-20.7015 3.70265 -3.38182 792
-20.9738 3.75134 -3.35944 812
-21.0306 3.76151 -3.30015 1050
-20.9488 3.74687 -3.21834 1189
-20.959 3.7487 -3.15158 1139
-20.9074 3.73947 -3.07533 1024
-20.8556 3.7302 -2.99944 1114
-20.8651 3.73191 -2.93298 1038
-20.8899 3.73634 -2.86871 810
-20.5749 3.67999 -2.75659 700
-20.5837 3.68157 -2.69103 819
-20.5923 3.68311 -2.62545 876
-20.6162 3.68738 -2.56186 824
-20.6244 3.68885 -2.49617 642
-20.4313 3.65432 -2.40547 723
-20.4855 3.664 -2.34599 687
-20.493 3.66535 -2.28072 516
-20.5004 3.66667 -2.21543 318
-0.715319 0.131242 -0.0628889 264
-0.715882 0.131345 -0.060925 291
-0.71644 0.131448 -0.0589593 292
-0.716992 0.131549 -0.0569918 300
-0.717537 0.131649 -0.0550226 295
-0.718077 0.131748 -0.0530516 293
-0.71861 0.131846 -0.0510788 294
-0.719137 0.131942 -0.0491044 290
-0.719658 0.132038 -0.0471283 290
-0.720173 0.132133 -0.0451506 264
-18.3115 3.35967 -4.68707 278
-18.3263 3.36238 -4.6287 288
-18.3711 3.37061 -4.57805 260
-19.015 3.48875 -4.29475 273
-19.8476 3.64151 -4.3561 261
-19.8766 3.64683 -4.29621 254
-21.1536 3.88111 -4.51074 300
-21.183 3.88652 -4.44656 621
-21.1971 3.8891 -4.379 997
-21.2109 3.89164 -4.31139 1187
-21.2093 3.89134 -4.24058 1257
-21.2227 3.8938 -4.17293 1299
-21.2359 3.89622 -4.10523 1150
-21.2489 3.89861 -4.0375 966
-20.8945 3.83358 -3.89875 1006
-20.8456 3.82461 -3.82048 1166
-20.7811 3.81278 -3.7397 1355
-20.793 3.81496 -3.67343 1485
-20.8047 3.8171 -3.60711 1330
-20.8161 3.8192 -3.54076 1088
-20.7199 3.80155 -3.45574 987
-20.7155 3.80074 -3.38705 877
-20.8339 3.82246 -3.33893 635
-21.029 3.85826 -3.30267 877
-20.8703 3.82914 -3.20848 1059
-20.8651 3.82819 -3.1395 1052
-20.8751 3.83002 -3.07296 1014
-20.8541 3.82617 -3.00175 1076
-20.8637 3.82792 -2.93525 1036
-20.873 3.82964 -2.86871 833
-20.8822 3.83132 -2.80215 745
-20.814 3.81881 -2.72495 731
-20.5911 3.77792 -2.62752 638
-20.5995 3.77946 -2.56186 627
-20.6232 3.7838 -2.49814 491
-20.4148 3.74557 -2.40547 399
-20.4689 3.75549 -2.34599 407
-20.4919 3.75972 -2.28255 339
-1.08278 0.198662 0.165198 253
-1.08264 0.198635 0.168338 276
-1.08248 0.198607 0.171478 276
-0.742821 0.139466 -0.0779772 281
-0.728528 0.136783 -0.0713672 324
-0.729117 0.136893 -0.0693592 430
-0.699838 0.131396 -0.0584287 520
-0.700388 0.131499 -0.0565127 524
-0.700932 0.131602 -0.0545949 493
-0.701469 0.131703 -0.0526754 484
-0.702001 0.131802 -0.0507541 466
-0.702527 0.131901 -0.0488312 451
-0.703047 0.131999 -0.0469066 437
-0.703561 0.132095 -0.0449804 423
-0.704069 0.132191 -0.0430525 422
-0.704571 0.132285 -0.041123 375
-0.705067 0.132378 -0.0391919 280
-6.34214 1.19075 -1.37983 334
-6.34676 1.19162 -1.35982 501
-6.35131 1.19247 -1.33979 749
-6.3558 1.19332 -1.31974 831
-6.36023 1.19415 -1.29968 710
-6.3646 1.19497 -1.27961 564
-6.3689 1.19578 -1.25952 400
-21.182 3.97697 -4.44986 578
-21.196 3.97961 -4.38225 887
-21.2099 3.98221 -4.31459 1016
-21.2235 3.98477 -4.24688 1063
-21.2522 3.99015 -4.18224 1186
-21.2654 3.99263 -4.1144 1148
-21.2784 3.99507 -4.04652 996
-20.8938 3.92285 -3.90171 1049
-20.8296 3.91081 -3.82048 975
-20.7652 3.89871 -3.7397 1153
-20.777 3.90094 -3.67343 1277
-20.7887 3.90313 -3.60711 1147
-20.7081 3.888 -3.52449 964
-20.704 3.88722 -3.45574 1034
-20.715 3.88928 -3.38966 921
-20.7257 3.89131 -3.32355 668
-20.7978 3.90483 -3.26746 777
-21.1156 3.9645 -3.25039 1010
-20.8491 3.91446 -3.1395 1005
-20.8591 3.91634 -3.07296 928
-20.8381 3.9124 -3.00175 935
-20.8476 3.91419 -2.93525 889
-21.0881 3.95934 -2.90199 746
-21.0203 3.94661 -2.82384 827
-20.798 3.90487 -2.72495 696
-20.7913 3.90361 -2.6565 551
-20.7072 3.88782 -2.57802 430
-20.8235 3.90966 -2.52574 389
-20.8316 3.91118 -2.45928 323
-20.6541 3.87785 -2.37033 261
-0.981688 0.184314 0.240187 277
-0.981311 0.184243 0.243005 314
-0.980926 0.184171 0.245822 330
-0.980532 0.184097 0.248638 322
-0.980129 0.184021 0.251452 285
-0.741515 0.142976 -0.0800291 252
-0.742131 0.143095 -0.0779772 268
-0.727851 0.140341 -0.0713672 283
-0.72844 0.140455 -0.0693592 344
-0.714105 0.137691 -0.0628889 432
-0.714668 0.137799 -0.060925 478
-0.715225 0.137907 -0.0589593 476
-0.700817 0.135129 -0.0526754 474
-0.701349 0.135231 -0.0507541 471
-0.701874 0.135332 -0.0488312 471
-0.702394 0.135433 -0.0469066 455
-0.702907 0.135532 -0.0449804 439
-0.703414 0.13563 -0.0430525 437
-0.703916 0.135726 -0.041123 408
-0.704412 0.135822 -0.0391919 356
-0.704901 0.135916 -0.0372592 326
-0.720457 0.138916 -0.0392076 319
-0.720947 0.13901 -0.0372234 311
-0.736526 0.142014 -0.0390235 326
-0.737015 0.142108 -0.0369877 339
-0.737497 0.142201 -0.0349504 337
-6.32112 1.21881 -1.37619 382
-6.32572 1.2197 -1.35622 367
-0.738907 0.142473 -0.0288293 341
-0.739365 0.142561 -0.0267859 296
-0.739816 0.142648 -0.0247411 265
-21.1633 4.08061 -4.52078 278
-21.1775 4.08336 -4.45316 494
-21.1916 4.08607 -4.3855 733
-21.2511 4.09755 -4.3274 881
-21.2495 4.09724 -4.25634 954
-21.2477 4.09689 -4.18534 1073
-21.2609 4.09944 -4.11746 1080
-21.2739 4.10195 -4.04952 950
-20.8896 4.02785 -3.90467 1038
-20.902 4.03023 -3.83793 851
-20.7306 3.99719 -3.73684 863
-20.8495 4.02012 -3.69029 996
-20.8765 4.02533 -3.62644 1046
-20.888 4.02754 -3.55974 942
-20.6848 3.98835 -3.45574 871
-20.6957 3.99046 -3.38966 870
-20.7678 4.00437 -3.3338 750
-20.7784 4.00641 -3.26746 842
-20.8042 4.01137 -3.20355 1062
-20.8297 4.0163 -3.1395 1031
-20.8551 4.02119 -3.07533 865
-20.8495 4.02011 -3.00639 792
-20.859 4.02196 -2.93978 692
-21.0685 4.06235 -2.90199 772
-20.9854 4.04631 -2.82167 760
-20.979 4.04508 -2.75251 627
-20.9261 4.03488 -2.67721 466
-20.8884 4.02761 -2.6043 373
-20.8659 4.02327 -2.53363 347
-20.8277 4.01591 -2.46121 272
-1.09706 0.211531 0.149959 308
-1.08143 0.208517 0.152633 331
-1.08132 0.208496 0.155775 331
-1.08121 0.208474 0.158916 309
-1.06555 0.205455 0.161389 250
-0.878238 0.169338 0.170815 251
-0.893589 0.172298 0.174371 254
-0.908925 0.175255 0.178026 253
-0.722537 0.139317 0.168612 264
-0.722383 0.139287 0.170602 274
-0.722223 0.139256 0.172591 274
-0.722057 0.139224 0.17458 281
-0.721885 0.139191 0.176568 282
-0.721707 0.139157 0.178556 292
-0.721523 0.139121 0.180543 302
-0.721332 0.139084 0.18253 285
-0.980399 0.189037 0.243005 262
-0.980014 0.188962 0.245822 270
-0.964232 0.185919 0.246381 266
-11.3788 2.24432 -3.6517 276
-11.3904 2.2466 -3.61546 260
-11.4906 2.26637 -3.60823 260
-0.713512 0.140731 -0.0628889 280
-0.714075 0.140842 -0.060925 331
-0.714631 0.140951 -0.0589593 376
-0.715181 0.14106 -0.0569918 402
-0.715725 0.141167 -0.0550226 425
-0.701291 0.13832 -0.0488312 447
-0.70181 0.138423 -0.0469066 440
-0.702323 0.138524 -0.0449804 433
-0.702831 0.138624 -0.0430525 415
-0.703332 0.138723 -0.041123 375
-0.703827 0.13882 -0.0391919 300
-6.37492 1.25737 -1.32673 315
-6.39453 1.26123 -1.31002 418
-6.39892 1.2621 -1.2898 520
-6.40325 1.26295 -1.26957 586
-6.40751 1.2638 -1.24932 481
-21.2196 4.18528 -4.39525 590
-21.2486 4.19101 -4.3306 793
-21.2471 4.1907 -4.2595 866
-21.2605 4.19335 -4.19155 937
-21.2585 4.19295 -4.12051 973
-21.2715 4.19552 -4.05253 853
-20.8723 4.11677 -3.90467 888
-20.8846 4.11921 -3.83793 733
-20.8967 4.1216 -3.77115 676
-20.8475 4.11189 -3.6931 870
-20.8592 4.1142 -3.62644 968
-20.8707 4.11646 -3.55974 919
-20.8666 4.11566 -3.49035 759
-21.2914 4.19944 -3.49419 769
-21.3024 4.20162 -3.42611 747
-21.0526 4.15234 -3.31524 847
-20.7869 4.09993 -3.20355 958
-20.8124 4.10497 -3.1395 937
-20.8531 4.113 -3.0777 765
-21.1395 4.16948 -3.05274 625
-21.1338 4.16836 -2.98288 603
-21.051 4.15203 -2.90199 700
-21.0449 4.15082 -2.83252 593
-20.9308 4.12831 -2.74827 451
-20.9241 4.127 -2.67928 360
-20.871 4.11653 -2.6043 295
-0.875013 0.172585 0.0387596 263
-0.87526 0.172633 0.0412418 293
-0.8755 0.172681 0.0437248 310
-0.875732 0.172726 0.0462085 302
-0.875956 0.172771 0.048693 295
-0.922599 0.18197 0.04705 280
-0.92282 0.182014 0.049685 268
-1.5601 0.307709 0.0327322 254
-1.56036 0.30776 0.0374151 279
-1.56061 0.307809 0.0420988 255
-1.04948 0.206996 0.151596 254
-1.04938 0.206975 0.154638 254
-1.04926 0.206953 0.15768 254
-0.722838 0.14257 0.154671 313
-0.722728 0.142548 0.156664 332
-0.722612 0.142525 0.158656 332
-0.722489 0.142501 0.160648 332
-0.72236 0.142476 0.16264 335
-0.722225 0.142449 0.164631 342
-0.722084 0.142421 0.166622 329
-0.721937 0.142392 0.168612 295
-0.95312 0.18799 0.200521 260
-0.952867 0.18794 0.203254 280
-0.952605 0.187889 0.205985 275
-0.952335 0.187835 0.208716 266
-0.952057 0.18778 0.211445 258
-11.3846 2.29195 -3.65664 273
-11.4405 2.30321 -3.63502 264
-11.4817 2.31148 -3.60823 270
-0.728423 0.146646 -0.0653374 253
-0.728993 0.146761 -0.0633237 313
-0.74449 0.14988 -0.0656247 345
-0.730113 0.146986 -0.0592909 384
-0.730663 0.147097 -0.0572719 420
-0.731208 0.147207 -0.0552511 419
-0.731746 0.147315 -0.0532285 414
-0.732278 0.147422 -0.0512042 392
-0.732804 0.147528 -0.0491782 353
-0.763371 0.153682 -0.0551093 297
-0.763909 0.15379 -0.0529833 257
-17.9784 3.61941 -4.43131 306
-18.0075 3.62526 -4.3776 337
-18.0213 3.62804 -4.32002 311
-18.0802 3.6399 -4.27346 251
-18.9082 3.80659 -4.34815 251
-20.3123 4.08926 -4.4767 269
-20.3415 4.09515 -4.41511 320
-20.5375 4.1346 -4.3902 344
-20.5513 4.13739 -4.32448 319
-21.2334 4.27469 -4.40175 506
-21.2624 4.28055 -4.337 720
-21.0631 4.24043 -4.22481 801
-21.2439 4.27681 -4.19155 819
-21.2571 4.27947 -4.12357 858
-21.2549 4.27902 -4.05253 783
-20.8712 4.20178 -3.90762 696
-21.3413 4.29642 -3.92808 656
-21.3537 4.29891 -3.85978 811
-21.3659 4.30137 -3.79144 860
-21.3167 4.29147 -3.71202 814
-21.3131 4.29075 -3.64109 798
-21.2481 4.27767 -3.55958 787
-21.2747 4.28302 -3.49419 952
-21.2858 4.28525 -3.42611 878
-21.0055 4.22881 -3.31021 844
-21.0466 4.2371 -3.24793 816
-20.8115 4.18976 -3.14192 794
-20.8368 4.19486 -3.0777 655
-20.8466 4.19683 -3.01102 486
-21.0405 4.23587 -2.97154 470
-21.0346 4.23467 -2.90199 545
-21.0284 4.23344 -2.83252 448
-20.9144 4.21048 -2.74827 292
-1.55888 0.313833 0.0327322 259
-1.55914 0.313886 0.0374151 274
-1.49739 0.301453 0.045413 251
-0.737979 0.14857 0.151452 251
-0.737878 0.148549 0.153495 308
-0.737772 0.148528 0.155538 318
-0.737659 0.148505 0.157581 317
-0.737539 0.148481 0.159623 317
-0.737414 0.148456 0.161665 316
-0.721795 0.145312 0.16264 311
-0.72166 0.145284 0.164631 291
-0.952375 0.191732 0.200521 281
-0.952122 0.191681 0.203254 278
-0.967306 0.194738 0.207549 281
-0.967031 0.194682 0.210329 265
-0.958346 0.192934 0.273972 287
-0.973144 0.195913 0.279522 303
-0.972646 0.195813 0.28232 321
-0.972141 0.195711 0.285117 334
-0.971626 0.195607 0.287913 322
-0.986345 0.198571 0.293702 282
-11.3747 2.34081 -3.65664 251
-11.4453 2.35534 -3.63991 253
-11.4716 2.36076 -3.60823 259
-0.743263 0.152957 -0.0676882 290
-0.743839 0.153076 -0.0656247 325
-0.744409 0.153193 -0.0635594 364
-0.744973 0.153309 -0.0614922 393
-0.74553 0.153423 -0.0594233 399
-0.74608 0.153537 -0.0573526 398
-0.746624 0.153649 -0.0552801 364
-0.732164 0.150673 -0.0491782 330
-0.732683 0.15078 -0.0471506 306
-17.9493 3.6938 -4.55008 288
-17.9636 3.69675 -4.49264 368
-17.9778 3.69966 -4.43514 412
-17.9917 3.70254 -4.3776 426
-18.0055 3.70538 -4.32002 404
-18.0644 3.71749 -4.27346 355
-18.0779 3.72026 -4.21564 305
-18.0761 3.71989 -4.15419 258
-20.2945 4.17643 -4.4767 288
-20.4752 4.21362 -4.44908 317
-20.5044 4.21962 -4.38685 341
-20.5334 4.22558 -4.32448 304
-21.2452 4.37207 -4.40825 434
-21.2439 4.3718 -4.337 617
-21.4399 4.41214 -4.30679 704
-21.4534 4.41493 -4.23811 753
-21.2537 4.37383 -4.12662 696
-21.2211 4.36711 -4.04952 734
-21.2491 4.37287 -3.98451 742
-21.3379 4.39114 -3.93099 892
-21.335 4.39055 -3.85978 1011
-21.3472 4.39306 -3.79144 979
-21.2981 4.38295 -3.71202 870
-21.2945 4.38222 -3.64109 888
-21.2907 4.38144 -3.57023 878
-21.2561 4.37432 -3.49419 999
-21.2672 4.3766 -3.42611 903
-21.2933 4.38198 -3.36051 775
-21.304 4.38417 -3.29231 727
-21.2991 4.38316 -3.22165 632
-21.3246 4.38842 -3.1558 496
-21.3193 4.38732 -3.08518 374
-21.0221 4.32616 -2.97154 337
-21.0162 4.32494 -2.90199 367
-21.0101 4.32368 -2.83252 320
-0.978256 0.201316 -0.000853366 252
-0.978625 0.201392 0.00196588 260
-0.978985 0.201466 0.0047863 254
-1.4107 0.29031 -0.0433843 258
-1.4266 0.293581 -0.0410458 262
-1.42709 0.293682 -0.0367838 257
-0.949596 0.195418 0.219629 250
-0.973261 0.200288 0.27392 250
-0.972782 0.20019 0.276721 251
-14.5593 3.06722 -4.0161 267
-14.572 3.06989 -3.96952 283
-17.9323 3.77782 -4.61146 308
-17.9468 3.78088 -4.55401 382
-17.9612 3.7839 -4.49652 522
-17.9603 3.78371 -4.43514 684
-17.9893 3.78982 -4.38139 763
-18.0031 3.79273 -4.32376 792
-18.0317 3.79877 -4.26977 817
-18.0452 3.8016 -4.212 809
-18.0585 3.8044 -4.15419 739
-18.0716 3.80716 -4.09634 592
-18.0845 3.80988 -4.03844 392
-19.9874 4.21078 -4.41123 295
-20.304 4.27746 -4.41511 292
-20.4844 4.31548 -4.38685 288
-21.4377 4.51631 -4.52575 264
-21.4064 4.50972 -4.44726 408
-21.4204 4.51267 -4.37862 579
-21.419 4.51237 -4.30679 659
-21.4326 4.51522 -4.23811 696
-21.4459 4.51803 -4.16939 625
-21.2004 4.46632 -4.04952 634
-21.3197 4.49145 -4.00225 771
-21.3323 4.4941 -3.9339 1013
-21.3295 4.49351 -3.86264 1066
-21.3417 4.49607 -3.79425 942
-21.3384 4.49538 -3.72307 782
-21.2738 4.48177 -3.64109 828
-21.2853 4.48419 -3.57289 800
-21.2354 4.4737 -3.49419 840
-21.2465 4.47602 -3.42611 765
-21.2879 4.48475 -3.36302 677
-21.3291 4.49344 -3.2997 626
-21.2937 4.48596 -3.22407 531
-21.3345 4.49456 -3.16054 425
-21.3598 4.4999 -3.09445 324
-0.99148 0.208876 -0.011572 325
-0.991881 0.208961 -0.00870702 336
-0.777414 0.163779 0.0245303 300
-0.777705 0.16384 0.0267056 302
-0.777989 0.1639 0.0288819 289
-0.778267 0.163958 0.031059 280
-0.778538 0.164015 0.0332371 271
-0.79418 0.167311 0.033494 250
-1.17946 0.248477 -0.00761804 272
-1.17984 0.248559 -0.00414769 287
-1.19562 0.251883 -0.00239978 281
-1.16975 0.246432 0.176382 269
-1.18504 0.249654 0.180687 276
-1.20031 0.252872 0.185092 266
-0.967603 0.203846 0.182491 275
-0.967406 0.203805 0.185278 324
-0.9672 0.203761 0.188064 332
-0.966986 0.203716 0.19085 326
-0.966763 0.203669 0.193635 291
-0.973246 0.205035 0.268311 255
-0.972784 0.204938 0.271116 278
-1.00285 0.211271 0.279321 276
-1.00235 0.211166 0.282221 263
-1.03234 0.217485 0.290717 259
-14.5595 3.12862 -3.96952 269
-17.8873 3.84373 -4.66484 325
-17.9169 3.8501 -4.61146 548
-17.9314 3.85321 -4.55401 747
-17.9458 3.85629 -4.49652 1030
-17.9599 3.85933 -4.43898 1252
-17.9738 3.86233 -4.38139 1371
-18.0027 3.86852 -4.3275 1202
-18.0163 3.87144 -4.26977 901
-18.0297 3.87433 -4.212 838
-18.043 3.87718 -4.15419 851
-18.0561 3.87999 -4.09634 812
-18.0539 3.87952 -4.03495 586
-18.0817 3.8855 -3.98051 368
-19.9842 4.29431 -4.34716 309
-20.013 4.3005 -4.2864 250
-21.4193 4.60271 -4.52575 253
-21.4487 4.60902 -4.46027 397
-21.4779 4.61529 -4.39463 516
-21.4006 4.59869 -4.30679 569
-21.4142 4.6016 -4.23811 581
-21.4275 4.60447 -4.16939 511
-21.2886 4.57462 -4.07057 545
-21.3014 4.57738 -4.00225 708
-21.314 4.58008 -3.9339 901
-21.3416 4.58602 -3.86836 918
-21.3995 4.59845 -3.8083 783
-21.4268 4.60431 -3.74239 637
-21.2555 4.56752 -3.64109 624
-21.267 4.56998 -3.57289 595
-21.2172 4.55928 -3.49419 588
-21.2435 4.56494 -3.42867 550
-21.3308 4.58368 -3.37308 522
-21.3261 4.58269 -3.30217 482
-21.2754 4.57178 -3.22407 426
-21.3162 4.58055 -3.16054 354
-21.3568 4.58928 -3.09677 255
-0.844504 0.181472 0.0897824 268
-0.844593 0.181491 0.0921758 268
-0.844675 0.181509 0.0945695 268
-0.84475 0.181525 0.0969634 268
-0.844817 0.181539 0.0993576 268
-0.967774 0.207961 0.165756 255
-0.967629 0.20793 0.168546 271
-0.967475 0.207897 0.171336 274
-0.967312 0.207862 0.174126 277
-0.967141 0.207825 0.176915 267
-0.966962 0.207786 0.179703 256
-0.966773 0.207746 0.182491 296
-0.966576 0.207704 0.185278 337
-0.966371 0.207659 0.188064 343
-0.981587 0.210929 0.192115 332
-0.981361 0.210881 0.19495 296
-14.53 3.19214 -3.9653 267
-14.5575 3.19817 -3.9229 256
-17.8994 3.93236 -4.67289 287
-17.9141 3.93559 -4.61544 478
-17.9285 3.93877 -4.55794 646
-17.9429 3.94191 -4.5004 889
-17.957 3.94502 -4.44281 1153
-17.9709 3.94808 -4.38518 1310
-17.9847 3.95111 -4.3275 1349
-17.9983 3.9541 -4.26977 1311
-18.0117 3.95705 -4.212 1257
-18.025 3.95996 -4.15419 1186
-18.0381 3.96283 -4.09634 1010
-18.0509 3.96566 -4.03844 689
-18.0788 3.97177 -3.98395 407
-19.9642 4.386 -4.34716 293
-0.706951 0.155312 -0.0119991 257
-21.4424 4.71075 -4.46352 351
-21.4564 4.71382 -4.39463 462
-21.4702 4.71685 -4.32571 491
-21.4838 4.71984 -4.25674 449
-21.482 4.71944 -4.18467 386
-21.3281 4.68563 -4.08259 470
-21.3106 4.68178 -4.00817 568
-21.3232 4.68455 -3.93971 712
-21.3508 4.69061 -3.87408 744
-22.4131 4.92399 -3.99938 676
-22.4257 4.92675 -3.92737 625
-22.4228 4.92612 -3.8526 500
-22.1757 4.87184 -3.7353 491
-22.1722 4.87108 -3.66144 480
-22.1075 4.85685 -3.57739 378
-21.3248 4.6849 -3.3756 327
-21.8243 4.79463 -3.386 303
-21.835 4.79698 -3.31589 255
-1.20916 0.265643 -0.000551461 281
-1.20952 0.265723 0.00302174 307
-1.20988 0.265801 0.00659611 329
-1.21022 0.265876 0.0101716 366
-1.21055 0.265949 0.0137482 367
-1.21087 0.26602 0.0173258 360
-1.21118 0.266088 0.0209045 316
-1.21148 0.266154 0.0244841 265
-1.19636 0.262831 0.0293413 253
-0.781669 0.171727 0.0879119 286
-0.781764 0.171748 0.0901053 340
-0.781852 0.171767 0.092299 339
-0.781934 0.171785 0.094493 339
-0.782009 0.171802 0.0966872 339
-0.782078 0.171817 0.0988816 339
-0.782139 0.17183 0.101076 339
-0.982106 0.215761 0.169414 263
-0.966511 0.212335 0.171336 268
-0.981784 0.215691 0.175092 268
-1.50277 0.330148 0.257758 256
-17.8975 4.01028 -4.61544 274
-17.912 4.01352 -4.55794 375
-17.9263 4.01672 -4.5004 497
-17.9404 4.01989 -4.44281 628
-17.9543 4.02301 -4.38518 721
-17.9831 4.02946 -4.33123 688
-17.9967 4.03251 -4.27346 588
-18.0101 4.03552 -4.21564 551
-18.0083 4.03511 -4.15419 555
-18.0364 4.04141 -4.09988 477
-18.0493 4.0443 -4.04194 304
-19.9169 4.46276 -4.40779 294
-19.9458 4.46924 -4.34716 267
-21.4366 4.80328 -4.39463 347
-21.4504 4.80637 -4.32571 378
-21.4639 4.80941 -4.25674 356
-21.4621 4.80901 -4.18467 346
-21.4753 4.81195 -4.11566 403
-22.3382 5.0053 -4.21221 467
-21.3035 4.77345 -3.93971 476
-22.3492 5.00777 -4.06563 611
-22.3771 5.01403 -3.99657 732
-22.3897 5.01684 -3.92461 699
-22.402 5.01961 -3.8526 557
-22.1552 4.9643 -3.7353 434
-22.106 4.95328 -3.6536 428
-22.087 4.94902 -3.57739 340
-1.05074 0.235438 -0.0145182 318
-1.05115 0.235529 -0.011453 383
-1.05154 0.235619 -0.00838642 368
-1.05193 0.235706 -0.0053186 331
-0.990996 0.222052 0.00563639 317
-0.991343 0.22213 0.00850859 284
-0.961625 0.215471 0.0206783 276
-0.961927 0.215538 0.0234555 308
-0.962219 0.215604 0.0262338 314
-1.22377 0.27421 0.0013973 320
-1.22413 0.27429 0.00502131 313
-1.22448 0.274368 0.00864646 302
-1.22481 0.274443 0.0122727 282
-1.22514 0.274516 0.0159 256
-0.842785 0.188842 0.0873892 277
-0.842881 0.188864 0.0897824 295
-0.84297 0.188884 0.0921758 295
-0.843052 0.188902 0.0945695 295
-0.843127 0.188919 0.0969634 295
-0.843194 0.188934 0.0993576 295
-1.80047 0.40343 0.176991 251
-17.8912 4.10506 -4.55794 301
-17.9055 4.10834 -4.5004 381
-17.9196 4.11158 -4.44281 464
-17.9335 4.11477 -4.38518 512
-17.9473 4.11793 -4.3275 582
-17.9608 4.12104 -4.26977 791
-17.9742 4.12411 -4.212 906
-17.9874 4.12715 -4.15419 808
-18.0005 4.13014 -4.09634 600
-18.0133 4.13309 -4.03844 350
-19.8637 4.55763 -4.40089 267
-20.2241 4.64034 -4.41511 269
-20.2229 4.64005 -4.34667 266
-21.185 4.86082 -4.34661 272
-21.1987 4.86395 -4.27841 289
-22.2714 5.11007 -4.42746 299
-22.2852 5.11326 -4.35575 306
-22.314 5.11986 -4.28701 386
-22.3123 5.11946 -4.21221 460
-22.2951 5.11553 -4.13455 446
-22.3081 5.1185 -4.06277 525
-22.3512 5.12839 -3.99657 631
-22.3637 5.13127 -3.92461 634
-22.3761 5.1341 -3.8526 508
-22.1448 5.08102 -3.73796 326
-22.2174 5.09769 -3.67712 322
-22.2442 5.10383 -3.60816 250
-1.03116 0.236595 -0.033421 280
-1.03163 0.236702 -0.030415 285
-1.06259 0.243806 -0.03224 263
-1.24874 0.286519 -0.0390119 260
-1.24922 0.286629 -0.0353024 296
-1.2497 0.286737 -0.0315913 283
-1.25015 0.286843 -0.0278787 278
-1.23529 0.283431 -0.0222427 290
-1.23572 0.28353 -0.0185768 280
-1.23614 0.283626 -0.0149095 252
-1.23655 0.28372 -0.0112408 274
-1.23694 0.283811 -0.00757085 312
-1.22198 0.280379 -0.00222553 337
-1.22235 0.280464 0.0013973 380
-1.22271 0.280546 0.00502131 366
-1.22306 0.280626 0.00864646 337
-1.2234 0.280703 0.0122727 304
-1.01037 0.231824 0.179964 251
-1.48509 0.340748 0.247301 251
-1.48469 0.340657 0.251773 251
-0.695202 0.163924 -0.0507541 267
-0.695723 0.164047 -0.0488312 286
-0.696238 0.164168 -0.0469066 301
-0.696747 0.164288 -0.0449804 315
-0.69725 0.164407 -0.0430525 316
-0.697747 0.164524 -0.041123 307
-0.698238 0.16464 -0.0391919 262
-17.8945 4.2194 -4.44281 322
-17.9084 4.22268 -4.38518 423
-17.9221 4.22592 -4.3275 490
-17.9507 4.23265 -4.27346 573
-17.9641 4.23581 -4.21564 548
-17.9773 4.23892 -4.15778 492
-17.9903 4.24199 -4.09988 409
-18.0032 4.24503 -4.04194 275
-20.1668 4.75519 -4.4767 292
-20.1808 4.75849 -4.41171 284
-20.1946 4.76174 -4.34667 272
-21.1868 4.99571 -4.42451 261
-21.1554 4.9883 -4.34661 276
-21.169 4.99151 -4.27841 294
-22.2553 5.24765 -4.43056 251
-22.254 5.24735 -4.35575 257
-22.2828 5.25413 -4.28701 298
-22.2962 5.25729 -4.21517 329
-22.2639 5.24969 -4.13455 293
-22.2466 5.24559 -4.05705 315
-22.3199 5.26289 -3.99657 387
-22.3324 5.26584 -3.92461 412
-22.3447 5.26874 -3.8526 331
-0.741265 0.174785 0.0185007 266
-0.741573 0.174858 0.0205724 264
-0.741875 0.174929 0.0226451 261
-0.74217 0.174999 0.0247188 273
-0.742459 0.175067 0.0267934 285
-0.742742 0.175134 0.028869 286
-0.743018 0.175199 0.0309454 258
-0.754212 0.181928 -0.0657126 254
-20.1421 4.8586 -4.4767 273
-20.1561 4.86198 -4.41171 273
-20.1699 4.8653 -4.34667 278
-21.1459 5.10073 -4.42126 263
-21.1431 5.10006 -4.27841 263
-0.755248 0.182178 0.0139644 269
-0.75557 0.182256 0.0160845 302
-0.755885 0.182332 0.0182055 310
-0.756194 0.182406 0.0203276 298
-0.756496 0.182479 0.0224506 287
-0.756791 0.18255 0.0245746 272
-0.75708 0.18262 0.0266996 259
-1.41648 0.341678 0.275794 258
-1.41599 0.341561 0.280056 278
-1.4155 0.341441 0.284317 273
-1.41499 0.341318 0.288576 257
-24.8325 6.08687 -10.8059 373
-24.8658 6.09503 -10.7256 374
-24.8989 6.10314 -10.6452 356
-24.9317 6.11119 -10.5647 353
-24.9643 6.11917 -10.484 367
-25.0109 6.13059 -10.4093 352
-25.043 6.13846 -10.3284 343
-25.3458 6.21269 -10.36 392
-25.3778 6.22052 -10.278 466
-25.4238 6.23179 -10.2018 474
-25.4552 6.23951 -10.1195 464
-25.4865 6.24716 -10.0372 448
-26.3642 6.4623 -10.2904 496
-26.3959 6.47007 -10.2052 554
-26.4417 6.48132 -10.1254 657
-26.473 6.48897 -10.0399 751
-26.4895 6.49303 -9.94874 806
-26.5202 6.50055 -9.86307 866
-26.5506 6.50801 -9.77729 738
-26.5663 6.51185 -9.68606 643
-26.5817 6.51563 -9.59482 590
-26.5968 6.51933 -9.50358 549
-26.6407 6.53008 -9.42278 547
-26.6843 6.54077 -9.34179 515
-26.7131 6.54783 -9.25549 413
-1.05849 0.259455 -0.116106 251
-20.1241 4.93275 -4.4767 259
-20.138 4.93617 -4.41171 262
-20.1518 4.93955 -4.34667 279
-20.1654 4.94287 -4.28159 275
-1.02934 0.252309 -0.0213882 255
-1.06021 0.259875 -0.0229128 281
-1.06064 0.259981 -0.0198009 266
-1.43429 0.35157 0.238733 276
-1.47987 0.362742 0.247301 277
-1.47948 0.362645 0.251773 257
-19.6968 4.9225 -4.38367 284
-19.7104 4.92592 -4.31999 289
-20.1443 5.03434 -4.35002 256
-0.782665 0.195599 0.000170143 256
-0.783027 0.19569 0.00238422 358
-0.798542 0.199567 0.00203543 422
-0.798899 0.199656 0.00430107 444
-0.799249 0.199744 0.00656787 416
-0.784411 0.196036 0.011252 362
-0.784741 0.196118 0.0134717 293
-1.28651 0.321518 -0.0607865 257
-0.897433 0.224281 0.0535973 250
-0.897632 0.224331 0.056184 254
-0.83655 0.209066 0.0634798 254
-0.836719 0.209108 0.0658686 254
-1.43269 0.35805 0.238733 287
-1.43232 0.357957 0.243057 288
-1.44723 0.361684 0.248845 271
-19.6751 5.0084 -4.38367 300
-19.6887 5.01188 -4.31999 315
-19.7022 5.0153 -4.25627 255
-0.7512 0.191222 0.00338057 250
-0.766678 0.195162 0.00283262 282
-0.782166 0.199105 0.00238422 327
-0.797663 0.203049 0.00203543 358
