16.0084 -23.7117 -0.653865 354
16.3817 -24.2646 -0.579977 357
16.56 -24.5287 -0.494634 394
16.1447 -23.9135 -0.388528 426
16.0215 -23.731 -0.294701 465
16.3411 -24.2044 -0.211279 539
16.3681 -24.2445 -0.119959 589
16.5102 -24.455 -0.0293836 619
16.5104 -24.4552 0.0632788 482
16.5724 -24.5471 0.156077 438
15.6952 -23.2478 0.242232 571
16.3948 -24.284 0.339717 705
15.9868 -23.6797 0.42395 657
16.2608 -24.0856 0.52045 714
15.95 -23.6252 0.602295 586
16.4274 -24.3323 0.709011 573
16.3997 -24.2913 0.800097 586
16.1682 -23.9483 0.881252 540
15.7417 -23.3166 0.9495 545
15.7047 -23.2618 1.03576 445
16.2077 -24.0068 1.15626 436
16.2146 -24.0171 1.24783 366
16.3188 -24.1714 1.34684 366
16.3077 -24.1549 1.4377 319
16.438 -24.348 1.54072 305
16.1788 -23.9641 1.60927 332
16.1761 -23.9601 1.70005 275
15.1915 -22.5017 1.68903 262
16.3085 -24.1562 1.98859 260
14.6723 -25.4784 -0.675349 305
13.7334 -23.8481 -0.53782 322
14.6587 -25.4548 -0.490016 456
14.6833 -25.4975 -0.398609 532
14.21 -24.6756 -0.2924 547
14.3765 -24.9647 -0.206773 667
14.5191 -25.2125 -0.118656 566
14.5431 -25.2542 -0.0275336 467
14.7329 -25.5837 0.0632483 621
14.725 -25.5701 0.155942 612
14.6696 -25.4738 0.24812 719
14.6693 -25.4733 0.340432 796
13.7603 -23.8948 0.4133 606
14.779 -25.6637 0.528113 621
14.6913 -25.5115 0.618157 685
14.4456 -25.0848 0.700724 613
14.0417 -24.3835 0.772819 568
14.0406 -24.3816 0.861163 530
14.1263 -24.5303 0.954653 459
14.4803 -25.145 1.06685 382
14.7709 -25.6496 1.17899 363
14.7455 -25.6055 1.27008 368
14.7515 -25.6159 1.36353 397
14.3627 -24.9408 1.42119 365
14.3527 -24.9234 1.51079 302
14.7213 -25.5635 1.63951 250
14.7188 -25.5592 1.73214 259
14.4165 -25.0342 1.78991 255
14.0561 -24.4084 1.92555 251
14.0799 -24.6504 -0.64785 301
14.403 -25.2159 -0.574281 337
14.3726 -25.1627 -0.481768 411
14.4362 -25.2742 -0.393009 464
14.2093 -24.8768 -0.294931 465
14.3041 -25.0428 -0.207133 502
14.4694 -25.3323 -0.119308 507
14.4619 -25.319 -0.027614 501
14.462 -25.3193 0.0639506 473
13.9987 -24.5082 0.154373 455
13.8258 -24.2055 0.24147 624
14.1397 -24.755 0.333758 668
14.4769 -25.3454 0.430544 615
14.6727 -25.6881 0.527676 723
14.6563 -25.6594 0.620039 628
14.6476 -25.6441 0.712517 553
14.6544 -25.6561 0.805627 550
14.5041 -25.393 0.890459 477
13.7728 -24.1127 0.938727 473
14.2503 -24.9486 1.05752 511
14.2566 -24.9596 1.14831 473
14.4432 -25.2864 1.25339 415
14.4335 -25.2694 1.34416 396
14.6355 -25.6231 1.4542 303
14.4451 -25.2897 1.52844 277
14.6703 -25.6839 1.6436 278
14.6678 -25.6796 1.73648 374
14.3673 -25.1535 1.79449 370
14.3646 -25.1488 1.88545 283
14.3148 -25.0615 1.97029 262
14.3588 -25.1386 2.0673 258
