-8.00419 -10.1167 -2.73313 837
-8.00973 -10.1237 -2.69279 679
-8.32245 -10.5189 -2.75957 891
-8.32804 -10.526 -2.71761 1201
-8.34316 -10.5451 -2.67888 1262
-8.35821 -10.5641 -2.64002 1075
-8.36357 -10.5709 -2.59788 930
-8.36884 -10.5776 -2.55571 705
-8.61502 -10.8887 -2.5899 765
-8.61063 -10.8832 -2.54345 747
-8.62545 -10.9019 -2.50299 545
-8.77539 -11.0914 -2.50312 555
-8.78048 -11.0978 -2.45886 590
-8.79515 -11.1164 -2.41739 648
-8.80007 -11.1226 -2.37303 743
-8.79522 -11.1165 -2.32594 729
-9.12922 -11.5386 -2.37211 830
-9.13405 -11.5447 -2.32605 1192
-9.13879 -11.5507 -2.27998 1356
-9.16283 -11.5811 -2.2389 1251
-9.18681 -11.6114 -2.19761 1309
-9.13304 -11.5435 -2.13677 2062
-9.13741 -11.549 -2.0907 2529
-9.14169 -11.5544 -2.04461 2124
-9.13615 -11.5474 -1.99622 1837
-9.14997 -11.5649 -1.95236 1866
-9.15398 -11.5699 -1.9062 1635
-9.14816 -11.5626 -1.8579 1279
-9.39548 -11.8752 -1.86352 1636
-9.39931 -11.88 -1.81612 1616
-9.38355 -11.8601 -1.76475 1326
-9.37744 -11.8524 -1.71549 1465
-9.37123 -11.8445 -1.6663 1559
-9.33564 -11.7995 -1.61173 1685
-9.31946 -11.7791 -1.56109 1787
-9.31293 -11.7708 -1.51235 1487
-9.277 -11.7254 -1.45867 1308
-9.28982 -11.7416 -1.4135 1332
-9.29277 -11.7453 -1.36663 1099
-9.2174 -11.6501 -1.30755 1016
-9.21037 -11.6412 -1.25958 1274
-9.20324 -11.6322 -1.2117 1198
-9.19601 -11.623 -1.1639 1160
-9.1691 -11.589 -1.11353 1033
-9.15189 -11.5673 -1.06473 921
-9.14436 -11.5578 -1.01734 931
-9.13674 -11.5481 -0.970042 938
-9.13883 -11.5508 -0.923958 916
-9.10162 -11.5037 -0.873553 813
-9.10352 -11.5061 -0.827647 818
-9.10533 -11.5084 -0.781733 671
-9.07762 -11.4734 -0.733024 731
-9.07925 -11.4755 -0.687242 826
-9.07097 -11.465 -0.640622 581
-9.02335 -11.4048 -0.59098 582
-9.0247 -11.4065 -0.545474 695
-8.98669 -11.3585 -0.497245 849
-8.98786 -11.36 -0.451925 1033
-8.97911 -11.3489 -0.40602 850
-8.94082 -11.3005 -0.358622 670
-8.9319 -11.2892 -0.313056 546
-8.9327 -11.2902 -0.268016 366
-8.91377 -11.2663 -0.222212 385
-8.90457 -11.2547 -0.176934 417
-8.87564 -11.2181 -0.131193 453
-8.86627 -11.2063 -0.086209 579
-8.86663 -11.2067 -0.041503 495
-8.85707 -11.1947 0.00333492 417
-8.84743 -11.1825 0.0480742 412
-8.82788 -11.1578 0.092745 365
-8.80824 -11.1329 0.137216 381
-8.78852 -11.108 0.181488 602
-8.78836 -11.1078 0.225798 706
-8.77828 -11.0951 0.269938 609
-8.7583 -11.0698 0.313757 625
-8.72841 -11.032 0.357106 949
-8.7279 -11.0314 0.40111 992
-8.70767 -11.0058 0.444373 754
-8.70699 -11.005 0.488271 741
-8.69641 -10.9916 0.531697 859
-8.68574 -10.9781 0.575019 1020
-8.67499 -10.9645 0.618236 890
-8.65434 -10.9384 0.660731 912
-8.64342 -10.9246 0.703689 913
-8.63243 -10.9107 0.746542 714
-8.60172 -10.8719 0.787753 876
-8.59056 -10.8578 0.830294 1384
-8.57932 -10.8436 0.872728 1762
-8.568 -10.8293 0.915054 2606
-8.5664 -10.8273 0.95824 3102
-8.55492 -10.8127 1.0004 2131
-8.54335 -10.7981 1.04245 1208
-8.5219 -10.771 1.08328 1167
-8.51998 -10.7686 1.12623 1959
-8.50817 -10.7537 1.16796 2365
-8.49629 -10.7387 1.20957 1834
-8.44517 -10.674 1.24582 1643
-8.44292 -10.6712 1.28838 1399
-8.45038 -10.6806 1.33234 1124
-8.44797 -10.6776 1.37493 949
-8.44547 -10.6744 1.4175 985
-13.3701 -16.8987 2.24816 812
-13.3658 -16.8934 2.31573 742
-13.3712 -16.9002 2.38495 596
-10.0364 -12.6852 1.86853 621
-10.0231 -12.6685 1.91741 742
-10.0098 -12.6516 1.96617 844
-9.97688 -12.61 2.01109 1061
-9.97314 -12.6053 2.06142 1313
-9.65734 -12.2061 2.04901 1534
-9.64377 -12.189 2.09571 2002
-9.63986 -12.184 2.14436 2182
-9.64559 -12.1913 2.19509 2389
-9.64149 -12.1861 2.24374 2585
-9.61783 -12.1562 2.28796 2295
-9.5941 -12.1262 2.33196 2107
-9.58972 -12.1207 2.38035 1984
-9.59497 -12.1273 2.43107 1818
-9.5904 -12.1215 2.47947 1642
-9.58574 -12.1156 2.52784 1367
-9.64889 -12.1954 2.59371 1054
-9.6537 -12.2015 2.64493 1431
-9.64872 -12.1952 2.69362 2311
-9.64364 -12.1888 2.74229 3055
-9.63846 -12.1823 2.79093 2905
-9.62352 -12.1634 2.8368 2351
-9.62783 -12.1688 2.88813 1993
-9.62236 -12.1619 2.93669 1601
-9.61681 -12.1549 2.98522 1171
-9.5629 -12.0868 3.019 1010
-9.57647 -12.1039 3.07321 872
-9.57065 -12.0966 3.12151 691
-10.6342 -13.4408 3.51311 652
-10.6179 -13.4202 3.56364 730
-10.6111 -13.4116 3.61722 661
-10.6138 -13.4151 3.67401 564
-10.6164 -13.4184 3.73087 425
-10.7054 -13.5307 3.81782 401
-11.2643 -14.2372 4.07163 431
-11.2661 -14.2395 4.13193 375
-11.3924 -14.3991 4.23757 327
-11.3843 -14.3888 4.29509 346
-11.376 -14.3784 4.35256 323
-11.3581 -14.3558 4.40636 267
-6.51093 -8.15183 -3.85646 272
-6.51872 -8.16159 -3.82389 311
-6.52644 -8.17126 -3.79128 334
-6.5341 -8.18085 -3.75863 359
-6.5417 -8.19036 -3.72594 337
-6.54923 -8.19979 -3.69322 297
-6.86317 -8.59284 -3.83893 283
-6.88951 -8.62583 -3.8153 370
-6.89722 -8.63548 -3.78082 399
-6.90486 -8.64504 -3.7463 422
-0.438292 -0.548751 -0.0888312 320
-0.4387 -0.549263 -0.0869458 326
-7.03956 -8.81369 -3.70402 364
-7.04704 -8.82306 -3.66878 438
-7.06383 -8.84408 -3.63854 470
-7.12746 -8.92374 -3.63308 542
-7.13481 -8.93294 -3.5974 624
-7.14208 -8.94205 -3.56168 743
-7.1587 -8.96285 -3.53076 803
-7.16584 -8.9718 -3.49492 751
-7.16349 -8.96885 -3.4543 759
-7.18935 -9.00124 -3.42784 662
-7.30964 -9.15184 -3.44766 761
-7.32608 -9.17242 -3.41566 872
-7.33299 -9.18108 -3.37898 865
-7.34931 -9.20151 -3.34677 833
-7.36557 -9.22187 -3.31442 639
-7.49566 -9.38474 -3.3349 812
-7.50242 -9.3932 -3.29736 977
-7.54713 -9.44918 -3.27705 925
-7.56329 -9.46941 -3.24352 918
-7.56987 -9.47765 -3.20564 879
-7.57637 -9.48579 -3.16773 814
-7.57326 -9.4819 -3.12565 736
-7.57961 -9.48984 -3.08772 643
-7.59543 -9.50966 -3.05379 476
-7.80249 -9.76889 -3.09931 550
-7.78963 -9.7528 -3.05236 758
-7.79584 -9.76057 -3.01334 889
-7.93618 -9.93628 -3.02796 892
-7.94233 -9.94398 -2.9882 981
-7.94841 -9.95159 -2.9484 1053
-7.96401 -9.97113 -2.91227 1035
-7.97955 -9.99059 -2.876 1045
-8.01428 -10.0341 -2.8468 1141
-8.02007 -10.0413 -2.80664 1180
-8.04506 -10.0726 -2.77344 1154
-8.05072 -10.0797 -2.73313 928
-8.05629 -10.0867 -2.69279 774
-8.37083 -10.4805 -2.75957 797
-8.37645 -10.4875 -2.71761 1043
-8.38199 -10.4944 -2.67563 1092
-8.4068 -10.5255 -2.64002 982
-8.41219 -10.5323 -2.59788 904
-8.41749 -10.5389 -2.55571 725
-8.6651 -10.8489 -2.5899 680
-8.67039 -10.8555 -2.54646 667
-8.6853 -10.8742 -2.50595 496
-8.79727 -11.0144 -2.49439 557
-8.8218 -11.0451 -2.456 547
-8.84627 -11.0757 -2.41739 596
-8.85122 -11.0819 -2.37303 726
-8.84634 -11.0758 -2.32594 757
-9.16281 -11.472 -2.36678 658
-9.13842 -11.4415 -2.31299 972
-9.18216 -11.4963 -2.27741 1063
-9.08927 -11.38 -2.20621 1120
-9.10356 -11.3979 -2.1631 1343
-9.13731 -11.4401 -2.12469 1900
-9.19053 -11.5068 -2.0907 2266
-9.15573 -11.4632 -2.03534 2170
-9.15992 -11.4684 -1.98942 1964
-9.16403 -11.4736 -1.94348 1826
-9.17783 -11.4909 -1.89969 1641
-9.19155 -11.508 -1.85578 1242
-9.4305 -11.8072 -1.85938 1284
-9.43435 -11.812 -1.81207 1269
-9.41849 -11.7922 -1.76081 1161
-9.42215 -11.7967 -1.71356 1304
-9.39627 -11.7643 -1.66069 1487
-9.3801 -11.7441 -1.60991 1721
-9.37363 -11.736 -1.56109 1917
-9.36707 -11.7278 -1.51235 1628
-9.34076 -11.6948 -1.46035 1255
-9.33399 -11.6864 -1.41187 1184
-9.2878 -11.6285 -1.35719 1118
-9.24148 -11.5705 -1.30298 1075
-9.23439 -11.5617 -1.25516 1255
-9.22721 -11.5527 -1.20742 1289
-9.21993 -11.5436 -1.15977 1454
-9.2224 -11.5467 -1.11353 1232
-9.20509 -11.525 -1.06473 787
-9.18767 -11.5032 -1.01612 604
-9.18986 -11.5059 -0.970042 637
-9.16239 -11.4715 -0.920576 871
-9.14467 -11.4493 -0.872475 1082
-9.13672 -11.4394 -0.825592 1063
-9.12867 -11.4293 -0.778799 804
-9.11067 -11.4068 -0.731168 737
-9.11229 -11.4088 -0.685485 616
-9.08423 -11.3737 -0.637308 536
-9.07581 -11.3631 -0.59098 604
-9.07716 -11.3648 -0.545474 632
-9.02906 -11.3046 -0.496566 793
-9.03023 -11.3061 -0.451296 901
-9.01156 -11.2827 -0.404862 874
-8.9928 -11.2592 -0.358622 867
-8.98382 -11.2479 -0.313056 599
-8.96487 -11.2242 -0.267156 334
-8.94583 -11.2004 -0.221452 398
-8.93658 -11.1888 -0.176274 434
-8.91736 -11.1647 -0.130913 492
-8.90793 -11.1529 -0.0859789 653
-8.90829 -11.1534 -0.0413228 573
-8.8888 -11.129 0.00359558 458
-8.8791 -11.1168 0.0482351 438
-8.86932 -11.1046 0.0927755 392
-8.83969 -11.0675 0.137178 361
-8.83961 -11.0674 0.181488 552
-8.82956 -11.0548 0.225679 660
-8.79967 -11.0174 0.26943 691
-8.79933 -11.017 0.313538 800
-8.77915 -10.9917 0.357106 1175
-8.76876 -10.9787 0.400791 1094
-8.74841 -10.9532 0.444005 808
-8.73785 -10.94 0.487434 851
-8.72721 -10.9267 0.53076 967
-8.72635 -10.9256 0.5745 1217
-8.71554 -10.9121 0.617668 1268
-8.70465 -10.8984 0.660731 1257
-8.6838 -10.8723 0.703021 1091
-8.65299 -10.8337 0.744389 845
-8.64185 -10.8198 0.786986 1170
-8.63063 -10.8057 0.829476 1270
-8.61933 -10.7916 0.87186 1347
-8.61781 -10.7897 0.915054 2292
-8.60634 -10.7753 0.957273 2861
-8.59479 -10.7609 0.999385 1943
-8.58315 -10.7463 1.04139 1070
-8.56159 -10.7193 1.08217 1312
-8.55965 -10.7169 1.12507 2192
-8.55763 -10.7144 1.16796 2385
-8.49643 -10.6377 1.20325 1778
-8.49426 -10.635 1.24582 1813
-8.492 -10.6322 1.28838 1401
-8.48966 -10.6293 1.33093 1019
-8.48724 -10.6262 1.37346 967
-8.48473 -10.6231 1.41599 968
-8.49197 -10.6321 1.46006 724
-13.4435 -16.8316 2.31573 570
-9.79347 -12.2617 1.76632 585
-9.76072 -12.2206 1.8103 489
-10.0323 -12.5607 1.9086 430
-10.0287 -12.5562 1.95892 610
-10.0251 -12.5516 2.00923 825
-10.0311 -12.5592 2.06142 1006
-9.70367 -12.1492 2.04705 1841
-9.69983 -12.1444 2.09571 2594
-9.6861 -12.1272 2.1423 2722
-9.68208 -12.1222 2.19087 2726
-9.67796 -12.117 2.23943 2799
-9.67374 -12.1117 2.28796 2620
-9.65965 -12.0941 2.33421 2407
-9.65524 -12.0886 2.38265 2230
-9.65075 -12.083 2.43107 1943
-9.64615 -12.0772 2.47947 1710
-9.64147 -12.0713 2.52784 1459
-9.68547 -12.1264 2.5887 1121
-9.70007 -12.1447 2.64238 1479
-9.70481 -12.1506 2.69362 2308
-9.68995 -12.132 2.73964 3182
-9.68475 -12.1255 2.78823 3196
-9.67946 -12.1189 2.8368 2649
-9.67407 -12.1122 2.88533 2158
-9.6783 -12.1175 2.93669 1580
-9.67271 -12.1105 2.98522 1104
-9.56994 -11.9818 3.00426 963
-9.57393 -11.9868 3.05524 846
-9.5778 -11.9916 3.10629 681
-10.5797 -13.2461 3.476 564
-10.6796 -13.3711 3.56364 556
-10.6728 -13.3626 3.61722 531
-10.6755 -13.366 3.67401 473
-10.7748 -13.4903 3.76375 479
-10.7676 -13.4813 3.81782 526
-10.7603 -13.4721 3.87185 511
-10.7528 -13.4628 3.92584 407
-11.4586 -14.3464 4.23757 408
-11.4504 -14.3362 4.29509 434
-11.4422 -14.3259 4.35256 421
-11.4242 -14.3033 4.40636 354
-11.4253 -14.3047 4.46738 257
-6.04503 -7.48671 -3.75268 264
-6.05267 -7.49617 -3.72266 285
-6.06024 -7.50555 -3.69261 292
-0.435509 -0.539373 -0.113146 277
-0.435969 -0.539943 -0.111289 318
-0.436425 -0.540508 -0.10943 317
-6.55409 -8.11717 -3.85646 278
-6.56193 -8.12688 -3.82389 326
-6.56971 -8.13651 -3.79128 346
-6.5681 -8.13453 -3.75308 374
-6.57574 -8.14398 -3.72044 363
-6.58331 -8.15336 -3.68776 331
-6.59081 -8.16266 -3.65504 269
-6.93518 -8.58916 -3.8153 309
-6.94294 -8.59876 -3.78082 333
-6.95063 -8.60829 -3.7463 359
-6.95825 -8.61772 -3.71174 292
-6.9376 -8.59215 -3.66162 277
-7.09563 -8.78787 -3.70915 294
-7.10318 -8.79721 -3.67386 344
-7.16724 -8.87656 -3.66873 394
-7.18415 -8.89749 -3.63806 490
-7.2199 -8.94178 -3.61715 588
-7.21781 -8.93918 -3.57635 669
-7.22509 -8.9482 -3.54045 728
-7.20386 -8.92191 -3.49013 650
-7.21097 -8.93072 -3.4543 652
-7.36049 -9.1159 -3.48892 680
-7.3676 -9.1247 -3.45231 903
-7.37464 -9.13342 -3.41566 1020
-7.3816 -9.14204 -3.37898 1001
-7.39803 -9.16238 -3.34677 944
-7.40486 -9.17084 -3.30996 752
-7.54535 -9.34484 -3.3349 860
-7.54259 -9.34142 -3.293 1065
-7.55888 -9.3616 -3.25979 1014
-7.55595 -9.35798 -3.21791 963
-7.56253 -9.36611 -3.18032 892
-7.62659 -9.44546 -3.16773 856
-7.63307 -9.45348 -3.12978 846
-7.62985 -9.44949 -3.08772 781
-7.64578 -9.46923 -3.05379 619
-7.8157 -9.67966 -3.08339 673
-7.83164 -9.6994 -3.04843 860
-7.84751 -9.71907 -3.01334 965
-7.84403 -9.71475 -2.97045 869
-7.98532 -9.88974 -2.98441 945
-8.00109 -9.90928 -2.9484 996
-8.02648 -9.94071 -2.91596 1029
-8.06149 -9.98407 -2.88693 1127
-8.0674 -9.9914 -2.8468 1253
-8.07324 -9.99862 -2.80664 1262
-8.09839 -10.0298 -2.77344 1131
-8.10408 -10.0368 -2.73313 890
-8.10969 -10.0438 -2.69279 756
-8.40687 -10.4118 -2.75287 719
-8.41252 -10.4188 -2.71101 934
-8.41808 -10.4257 -2.66913 909
-8.43331 -10.4446 -2.63041 762
-8.4777 -10.4995 -2.60103 690
-8.48304 -10.5062 -2.55882 594
-8.41999 -10.4281 -2.49519 494
-8.56185 -10.6038 -2.49535 552
-8.56698 -10.6101 -2.45272 621
-8.56225 -10.6043 -2.40715 591
-8.79223 -10.8891 -2.43027 527
-8.80702 -10.9074 -2.38929 589
-8.82174 -10.9256 -2.34818 647
-8.83639 -10.9438 -2.30696 644
-8.90978 -11.0347 -2.28158 576
-9.15975 -11.3443 -2.30253 808
-9.14487 -11.3258 -2.25177 1205
-9.14952 -11.3316 -2.20621 1517
-9.15408 -11.3372 -2.16063 1797
-9.16838 -11.355 -2.11744 2017
-9.20227 -11.3969 -2.07887 2133
-9.20658 -11.4023 -2.03302 2131
-9.20096 -11.3953 -1.98488 1941
-9.21493 -11.4126 -1.94126 1709
-9.22881 -11.4298 -1.89752 1562
-9.23276 -11.4347 -1.85154 1185
-9.22676 -11.4273 -1.80347 809
-9.46729 -11.7251 -1.80601 911
-9.46119 -11.7176 -1.75686 1079
-9.45498 -11.7099 -1.7078 1247
-9.4388 -11.6899 -1.65694 1397
-9.43239 -11.6819 -1.60809 1650
-9.416 -11.6616 -1.55754 1809
-9.42916 -11.6779 -1.51235 1397
-9.31366 -11.5349 -1.44528 1022
-9.31671 -11.5387 -1.39888 1315
-9.31967 -11.5423 -1.35246 1276
-9.31264 -11.5336 -1.3045 1138
-9.2857 -11.5003 -1.25368 1200
-9.28838 -11.5036 -1.20742 1353
-9.28105 -11.4945 -1.15977 1560
-9.28354 -11.4976 -1.11353 1431
-9.26611 -11.476 -1.06473 958
-9.24857 -11.4543 -1.01612 732
-9.23094 -11.4324 -0.967688 680
-9.2132 -11.4105 -0.919448 887
-9.20529 -11.4007 -0.872475 1199
-9.19728 -11.3907 -0.825592 1100
-9.16933 -11.3561 -0.776843 871
-9.16113 -11.346 -0.73024 743
-9.1429 -11.3234 -0.68285 582
-9.13451 -11.313 -0.63648 589
-9.12603 -11.3025 -0.590202 604
-9.08765 -11.255 -0.54183 656
-9.08891 -11.2565 -0.496566 653
-9.08015 -11.2457 -0.450667 640
-9.06136 -11.2224 -0.404282 700
-9.04247 -11.199 -0.358092 730
-9.01354 -11.1632 -0.311618 563
-9.00441 -11.1519 -0.266297 408
-8.99519 -11.1404 -0.221073 430
-8.98587 -11.1289 -0.175944 441
-8.96652 -11.105 -0.130633 526
-8.96698 -11.1055 -0.0859789 595
-8.95739 -11.0936 -0.0411426 538
-8.93778 -11.0693 0.00372591 478
-8.91807 -11.0449 0.048396 461
-8.90822 -11.0327 0.0928366 429
-0.463444 -0.573971 0.120757 450
-8.86836 -10.9834 0.18128 635
-8.8682 -10.9832 0.22544 647
-8.858 -10.9705 0.26943 577
-8.84772 -10.9578 0.313319 707
-8.83734 -10.945 0.357106 980
-8.807 -10.9074 0.400153 965
-8.79645 -10.8943 0.443636 866
-8.78583 -10.8812 0.487015 892
-8.78506 -10.8802 0.53076 996
-8.76432 -10.8545 0.573464 1244
-8.76338 -10.8534 0.6171 1321
-8.75241 -10.8398 0.660113 1313
-8.74136 -10.8261 0.703021 1116
-8.70042 -10.7754 0.743671 1271
-8.69914 -10.7738 0.786986 1724
-8.68784 -10.7598 0.829476 1445
-8.67646 -10.7457 0.87186 1408
-8.67493 -10.7438 0.915054 2119
-8.66339 -10.7295 0.957273 2385
-8.65176 -10.7151 0.999385 1727
-8.63013 -10.6883 1.04032 1241
-8.61834 -10.6737 1.08217 1498
-8.61639 -10.6713 1.12507 2023
-8.61436 -10.6688 1.16796 1967
-8.57258 -10.6171 1.20578 1649
-8.55057 -10.5898 1.24582 1693
-8.52848 -10.5624 1.28565 1335
-8.52613 -10.5595 1.3281 967
-8.50388 -10.532 1.36761 928
-8.50137 -10.5289 1.40993 861
-8.50867 -10.5379 1.45381 606
-9.8616 -12.2135 1.71719 647
-9.8485 -12.1973 1.76466 781
-9.81553 -12.1564 1.80859 665
-9.86156 -12.2135 1.8663 541
-9.85806 -12.2091 1.91544 701
-9.85445 -12.2046 1.96455 768
-9.78164 -12.1145 2.00028 991
-9.76799 -12.0976 2.04705 1987
-9.75427 -12.0806 2.0937 2838
-9.75031 -12.0757 2.1423 2896
-9.74626 -12.0706 2.19087 2631
-9.74211 -12.0655 2.23943 2524
-9.72802 -12.0481 2.28575 2526
-9.72368 -12.0427 2.33421 2424
-9.71925 -12.0372 2.38265 2124
-9.71472 -12.0316 2.43107 1767
-9.7101 -12.0259 2.47947 1584
-9.70538 -12.02 2.52784 1428
-9.71038 -12.0262 2.57869 1093
-9.74474 -12.0688 2.63727 1312
-9.74951 -12.0747 2.68842 2014
-9.74438 -12.0683 2.73699 2875
-9.73915 -12.0618 2.78553 3035
-9.73383 -12.0552 2.83405 2595
-9.73819 -12.0607 2.88533 2088
-9.72289 -12.0417 2.931 1483
-9.64882 -11.95 2.95915 1123
-9.63338 -11.9308 3.00426 1129
-9.63739 -11.9358 3.05524 1052
-9.63153 -11.9286 3.10325 858
-10.6596 -13.2018 3.47909 578
-10.6432 -13.1815 3.52908 519
-10.5974 -13.1248 3.56936 412
-10.8534 -13.4418 3.70965 378
-10.8462 -13.433 3.76375 526
-10.839 -13.4239 3.81782 602
-10.8316 -13.4148 3.87185 588
-10.8241 -13.4056 3.92584 473
-11.5345 -14.2854 4.23757 453
-11.5263 -14.2753 4.29509 468
-11.518 -14.2649 4.35256 452
-11.4999 -14.2425 4.40636 377
-12.2847 -15.2144 4.7653 343
-12.2657 -15.191 4.82285 357
-12.2564 -15.1794 4.88403 335
-12.2662 -15.1916 4.95281 284
-6.0805 -7.45793 -3.75268 277
-6.08819 -7.46735 -3.72266 296
-6.09581 -7.4767 -3.69261 300
-6.59255 -8.08597 -3.85646 270
-6.60044 -8.09564 -3.82389 315
-6.5989 -8.09375 -3.78568 338
-6.60664 -8.10326 -3.75308 370
-6.61433 -8.11268 -3.72044 354
-6.59376 -8.08745 -3.6714 325
-6.62009 -8.11974 -3.64964 270
-6.97588 -8.55614 -3.8153 256
-6.96484 -8.54259 -3.77019 277
-7.00085 -8.58677 -3.75157 299
-6.99908 -8.58459 -3.71174 275
-6.97831 -8.55912 -3.66162 286
-6.98581 -8.56831 -3.62713 287
-7.15434 -8.77502 -3.67894 292
-7.19981 -8.83079 -3.66369 336
-7.2263 -8.86329 -3.63806 413
-7.26227 -8.9074 -3.61715 487
-7.26016 -8.90482 -3.57635 556
-7.26749 -8.9138 -3.54045 614
-7.27474 -8.9227 -3.50451 536
-7.24375 -8.88468 -3.44956 505
-7.40369 -9.08085 -3.48892 705
-7.41084 -9.08962 -3.45231 951
-7.41792 -9.0983 -3.41566 1079
-7.42492 -9.10689 -3.37898 1072
-7.43185 -9.1154 -3.34226 1027
-7.44831 -9.13558 -3.30996 859
-7.58002 -9.29713 -3.33049 882
-7.58685 -9.30551 -3.293 1101
-7.59361 -9.3138 -3.25547 1106
-7.59066 -9.31018 -3.21364 1106
-7.59726 -9.31828 -3.1761 1016
-7.67135 -9.40915 -3.16773 897
-7.67786 -9.41713 -3.12978 923
-7.70363 -9.44874 -3.09995 866
-7.71968 -9.46843 -3.06587 740
-7.86156 -9.64245 -3.08339 779
-7.87759 -9.66211 -3.04843 863
-7.89356 -9.6817 -3.01334 920
-7.95801 -9.76075 -2.99729 951
-7.97389 -9.78023 -2.9617 970
-8.03833 -9.85926 -2.94467 955
-8.09304 -9.92636 -2.92333 1073
-8.1088 -9.94569 -2.88693 1217
-8.11474 -9.95299 -2.8468 1310
-8.12061 -9.96018 -2.80664 1252
-8.13616 -9.97925 -2.76995 1029
-8.15164 -9.99824 -2.73313 816
-8.27455 -10.149 -2.73356 749
-8.33886 -10.2279 -2.71269 789
-8.41296 -10.3188 -2.69452 1054
-8.42832 -10.3376 -2.65612 1087
-8.4436 -10.3563 -2.6176 864
-8.45882 -10.375 -2.57896 702
-8.46415 -10.3815 -2.53709 637
-8.4694 -10.388 -2.49519 605
-8.5728 -10.5148 -2.48333 587
-8.56811 -10.5091 -2.43793 728
-8.583 -10.5273 -2.39842 828
-8.58797 -10.5334 -2.35593 846
-8.6027 -10.5515 -2.31623 714
-8.86366 -10.8716 -2.34542 662
-8.86853 -10.8775 -2.30153 640
-8.86344 -10.8713 -2.25496 499
-9.20364 -11.2885 -2.29992 701
-9.19854 -11.2823 -2.25177 1096
-9.20322 -11.288 -2.20621 1490
-9.2078 -11.2937 -2.16063 1819
-9.20241 -11.287 -2.11261 2060
-9.20681 -11.2924 -2.06703 2002
-9.23092 -11.322 -2.02607 1799
-9.24505 -11.3393 -1.98261 1711
-9.24919 -11.3444 -1.93682 1414
-9.26315 -11.3615 -1.89318 1190
-9.2572 -11.3542 -1.84518 1010
-9.24123 -11.3347 -1.79519 1003
-9.245 -11.3393 -1.74942 1034
-9.49686 -11.6482 -1.75292 1178
-9.49061 -11.6405 -1.70395 1410
-9.48426 -11.6327 -1.65507 1551
-9.46787 -11.6126 -1.60444 1782
-9.46131 -11.6046 -1.55577 1812
-9.4646 -11.6086 -1.5089 1141
-9.36831 -11.4905 -1.44528 1230
-9.36143 -11.4821 -1.39725 1481
-9.36441 -11.4857 -1.35089 1413
-9.36729 -11.4893 -1.3045 1148
-9.35016 -11.4683 -1.25516 958
-9.34288 -11.4593 -1.20742 956
-9.34548 -11.4625 -1.16115 1243
-9.34799 -11.4656 -1.11486 1395
-9.32048 -11.4319 -1.06473 998
-9.29287 -11.398 -1.01489 710
-9.27513 -11.3762 -0.966511 768
-9.25729 -11.3544 -0.918321 1017
-9.25931 -11.3568 -0.872475 1210
-9.2213 -11.3102 -0.822508 1071
-9.22314 -11.3125 -0.776843 872
-9.21489 -11.3023 -0.73024 730
-9.16659 -11.2431 -0.680215 762
-9.16814 -11.245 -0.634823 542
-9.16959 -11.2468 -0.589423 484
-9.15097 -11.224 -0.542558 582
-9.13226 -11.201 -0.495887 579
-9.12344 -11.1902 -0.450038 557
-9.11453 -11.1793 -0.404282 505
-9.07553 -11.1314 -0.357034 587
-9.05644 -11.108 -0.311138 643
-9.03725 -11.0845 -0.265438 623
-9.03797 -11.0854 -0.220693 552
-9.0286 -11.0739 -0.175614 450
-9.00914 -11.05 -0.130353 500
-9.00959 -11.0505 -0.0857488 462
-8.98995 -11.0265 -0.0407821 432
-8.98022 -11.0145 0.00385624 498
-8.9604 -10.9902 0.0484764 521
-8.95049 -10.9781 0.0928671 478
-8.9405 -10.9658 0.137158 526
-8.93041 -10.9534 0.18135 641
-8.92024 -10.941 0.22544 507
-8.88997 -10.9038 0.269092 396
-8.88963 -10.9034 0.3131 501
-8.85919 -10.8661 0.356299 636
-8.84868 -10.8532 0.399835 718
-8.83807 -10.8402 0.443267 760
-8.82738 -10.8271 0.486597 758
-8.82661 -10.8261 0.530292 809
-8.81575 -10.8128 0.573464 969
-8.8048 -10.7994 0.616532 1019
-8.79377 -10.7858 0.659495 986
-8.76267 -10.7477 0.701018 957
-8.75147 -10.734 0.743671 1406
-8.75019 -10.7324 0.786986 1845
-8.73882 -10.7184 0.829476 1501
-8.72738 -10.7044 0.87186 1472
-8.72584 -10.7025 0.915054 1991
-8.71422 -10.6883 0.957273 2032
-8.69254 -10.6617 0.998368 1454
-8.66081 -10.6227 1.03819 1187
-8.65893 -10.6205 1.08105 1290
-8.66696 -10.6303 1.12507 1412
-8.65494 -10.6155 1.16674 1387
-8.62289 -10.5762 1.20578 1522
-8.60074 -10.5491 1.24582 1531
-8.57852 -10.5218 1.28565 1296
-8.5662 -10.5067 1.32668 1057
-8.55379 -10.4915 1.36761 1008
-8.55126 -10.4884 1.40993 876
-10.1018 -12.3902 1.69618 752
-10.0986 -12.3863 1.74623 758
-9.89635 -12.1382 1.763 848
-9.87313 -12.1097 1.80859 791
-9.85978 -12.0933 1.85573 748
-9.91591 -12.1622 1.91544 921
-9.84273 -12.0724 1.95153 957
-9.83904 -12.0679 2.00028 1139
-9.81539 -12.0389 2.04509 1855
-9.80158 -12.0219 2.09169 2591
-9.79761 -12.0171 2.14024 2632
-9.80345 -12.0242 2.19087 2163
-9.78937 -12.007 2.23727 2018
-9.7851 -12.0017 2.28575 2209
-9.77084 -11.9842 2.33196 2138
-9.76639 -11.9788 2.38035 1719
-9.77173 -11.9853 2.43107 1373
-9.77697 -11.9918 2.48187 1281
-9.64372 -11.8283 2.49838 1236
-9.63894 -11.8225 2.54614 1185
-9.79205 -12.0102 2.63472 1152
-9.78699 -12.004 2.68322 1708
-9.7917 -12.0098 2.73434 2364
-9.78645 -12.0034 2.78283 2497
-9.79095 -12.0089 2.83405 2187
-9.78549 -12.0022 2.88253 1775
-9.75042 -11.9592 2.92245 1340
-9.70545 -11.904 2.95915 1146
-9.68991 -11.885 3.00426 1258
-9.68412 -11.8779 3.05225 1265
-9.68805 -11.8827 3.10325 1066
-9.69188 -11.8874 3.15431 706
-10.5781 -12.9744 3.48823 444
-10.64 -13.0503 3.56298 407
-10.6331 -13.0418 3.6157 351
-10.9099 -13.3813 3.76375 502
-10.8928 -13.3603 3.81448 600
-10.8854 -13.3513 3.86846 594
-10.8876 -13.354 3.92584 481
-11.6022 -14.2305 4.23757 432
-11.594 -14.2204 4.29509 445
-11.5856 -14.2101 4.35256 425
-12.3757 -15.1792 4.70761 385
-12.347 -15.144 4.76162 397
-12.3377 -15.1326 4.82285 411
-12.3283 -15.121 4.88403 383
-12.3382 -15.1331 4.95281 321
-12.3285 -15.1213 5.01399 267
-6.11363 -7.43079 -3.75268 278
-6.12136 -7.44018 -3.72266 297
-6.12902 -7.44949 -3.69261 300
-6.19275 -7.52695 -3.69749 252
-6.62847 -8.05655 -3.85646 279
-6.6364 -8.06618 -3.82389 328
-6.63486 -8.06431 -3.78568 342
-6.63322 -8.06232 -3.74753 359
-6.65037 -8.08316 -3.72044 335
-6.63913 -8.06951 -3.67685 307
-6.65616 -8.0902 -3.64964 266
-7.04849 -8.56705 -3.75683 266
-7.04672 -8.5649 -3.71696 280
-7.04486 -8.56264 -3.67714 302
-7.04291 -8.56027 -3.63738 340
-7.0504 -8.56938 -3.60276 361
-7.05782 -8.57839 -3.5681 330
-7.23704 -8.79622 -3.62311 365
-7.28273 -8.85176 -3.60727 401
-7.29015 -8.86079 -3.57146 460
-7.30709 -8.88137 -3.54045 500
-7.26644 -8.83197 -3.48054 460
-7.44636 -9.05065 -3.53025 498
-7.44403 -9.04781 -3.48892 693
-7.45122 -9.05655 -3.45231 944
-7.45833 -9.0652 -3.41566 1085
-7.46538 -9.07376 -3.37898 1108
-7.47235 -9.08223 -3.34226 1092
-7.48889 -9.10234 -3.30996 949
-7.62132 -9.2633 -3.33049 871
-7.62819 -9.27165 -3.293 1059
-7.62531 -9.26815 -3.25115 1105
-7.63202 -9.27631 -3.21364 1129
-7.63866 -9.28437 -3.1761 1021
-7.71315 -9.37491 -3.16773 871
-7.7197 -9.38287 -3.12978 888
-7.75533 -9.42618 -3.10403 867
-7.88822 -9.5877 -3.11823 848
-7.89466 -9.59553 -3.07941 861
-7.92052 -9.62696 -3.04843 836
-7.93658 -9.64648 -3.01334 862
-8.00137 -9.72523 -2.99729 1010
-8.01734 -9.74464 -2.9617 1035
-8.08213 -9.82338 -2.94467 973
-8.13714 -9.89025 -2.92333 1167
-8.15298 -9.9095 -2.88693 1310
-8.15896 -9.91677 -2.8468 1357
-8.16486 -9.92394 -2.80664 1210
-8.18049 -9.94294 -2.76995 918
-8.29424 -10.0812 -2.76759 753
-8.37859 -10.1837 -2.75394 842
-8.3843 -10.1907 -2.71269 947
-8.4588 -10.2812 -2.69452 1103
-8.47424 -10.3 -2.65612 1177
-8.48961 -10.3187 -2.6176 1012
-8.54434 -10.3852 -2.59157 842
-8.56946 -10.4157 -2.55571 840
-8.57477 -10.4222 -2.51352 756
-8.60963 -10.4645 -2.48032 733
-8.6148 -10.4708 -2.43793 870
-8.61987 -10.477 -2.39552 1172
-8.63476 -10.4951 -2.35593 1345
-8.63968 -10.5011 -2.31342 1122
-8.64451 -10.5069 -2.27088 850
-8.64925 -10.5127 -2.22832 630
-8.66383 -10.5304 -2.18839 451
-9.23394 -11.2234 -2.29469 554
-9.23873 -11.2292 -2.24921 876
-9.24343 -11.2349 -2.2037 1244
-9.24804 -11.2405 -2.15816 1528
-9.25255 -11.246 -2.11261 1781
-9.25698 -11.2514 -2.06703 1835
-9.27126 -11.2687 -2.02375 1657
-9.28547 -11.286 -1.98035 1475
-9.28963 -11.291 -1.93461 1170
-9.28373 -11.2839 -1.88668 927
-9.26776 -11.2645 -1.8367 1031
-9.28161 -11.2813 -1.79312 1203
-9.28539 -11.2859 -1.7474 1303
-9.52864 -11.5815 -1.74898 1155
-9.53234 -11.586 -1.70203 1349
-9.52595 -11.5783 -1.6532 1517
-9.49947 -11.5461 -1.6008 1882
-9.51287 -11.5624 -1.55577 1720
-9.45618 -11.4935 -1.49856 1258
-9.42936 -11.4609 -1.44695 1369
-9.42245 -11.4525 -1.39888 1429
-9.41543 -11.4439 -1.35089 1327
-9.41833 -11.4475 -1.3045 1032
-9.37106 -11.39 -1.25073 779
-9.36374 -11.3811 -1.20314 672
-9.36634 -11.3843 -1.15702 997
-9.39892 -11.4239 -1.11486 1276
-9.36124 -11.3781 -1.06345 1014
-9.31342 -11.32 -1.01121 860
-9.3056 -11.3105 -0.964156 1014
-9.30773 -11.313 -0.918321 1141
-9.30976 -11.3155 -0.872475 1087
-9.27155 -11.2691 -0.822508 1061
-9.27339 -11.2713 -0.776843 806
-9.22493 -11.2124 -0.726527 860
-9.21654 -11.2022 -0.680215 1008
-9.21809 -11.2041 -0.634823 684
-9.20951 -11.1937 -0.588644 482
-9.18074 -11.1587 -0.541101 542
-9.17197 -11.148 -0.495208 647
-9.17315 -11.1495 -0.450038 621
-9.13404 -11.1019 -0.402545 519
-9.11493 -11.0787 -0.356504 588
-9.09573 -11.0554 -0.310659 615
-9.09655 -11.0564 -0.265867 657
-9.08722 -11.045 -0.220693 580
-9.06774 -11.0213 -0.175285 462
-9.05823 -11.0098 -0.130353 523
-9.04863 -10.9981 -0.0855186 502
-9.03893 -10.9863 -0.0407821 420
-9.02915 -10.9744 0.00385624 481
-9.00922 -10.9502 0.0484764 508
-8.99926 -10.9381 0.0928671 459
-8.97915 -10.9137 0.137139 492
-8.95895 -10.8891 0.181211 571
-8.93867 -10.8645 0.225083 601
-8.92835 -10.8519 0.268923 609
-8.89784 -10.8148 0.312224 519
-8.88735 -10.8021 0.355762 429
-8.88683 -10.8015 0.399516 515
-8.88623 -10.8007 0.443267 541
-8.87548 -10.7877 0.486597 581
-8.8747 -10.7867 0.530292 615
-8.86378 -10.7734 0.573464 598
-8.85278 -10.7601 0.616532 586
-8.82159 -10.7222 0.658259 673
-8.80036 -10.6964 0.70035 876
-8.79916 -10.6949 0.743671 1357
-8.79787 -10.6933 0.786986 1671
-8.77639 -10.6672 0.828659 1406
-8.76489 -10.6532 0.870993 1447
-8.76334 -10.6514 0.914137 1768
-8.75167 -10.6372 0.956307 1696
-8.71983 -10.5985 0.996335 1448
-8.708 -10.5841 1.03819 1290
-8.70612 -10.5818 1.08105 1073
-8.69412 -10.5672 1.12274 938
-8.69207 -10.5647 1.16553 1007
-8.66988 -10.5378 1.20578 1349
-8.65763 -10.5229 1.24713 1237
-8.61524 -10.4714 1.28428 1123
-8.61287 -10.4685 1.32668 1118
-8.6004 -10.4533 1.36761 1085
-10.16 -12.3489 1.64612 1001
-10.1569 -12.3451 1.69618 987
-10.1537 -12.3412 1.74623 950
-10.1503 -12.3372 1.79625 901
-9.92693 -12.0656 1.80859 935
-9.9135 -12.0493 1.85573 968
-9.90998 -12.045 1.90457 1131
-9.90635 -12.0406 1.95339 1152
-9.89265 -12.024 2.00028 1124
-9.85889 -11.9829 2.04313 1529
-9.84501 -11.9661 2.08968 2247
-9.84102 -11.9612 2.13818 2312
-9.8469 -11.9684 2.18876 1830
-9.84271 -11.9633 2.23727 1780
-9.82846 -11.946 2.28354 2014
-9.81412 -11.9285 2.3297 1823
-9.80965 -11.9231 2.37804 1361
-9.69565 -11.7845 2.40045 1048
-9.72087 -11.8152 2.45542 1351
-9.70621 -11.7974 2.50084 1547
-9.69146 -11.7794 2.54614 1406
-9.68655 -11.7735 2.59387 1147
-9.80063 -11.9121 2.67281 1646
-9.79547 -11.9059 2.72108 1938
-9.82986 -11.9477 2.78013 1909
-9.82448 -11.9411 2.82855 1749
-9.80911 -11.9224 2.87414 1540
-9.79365 -11.9037 2.9196 1343
-9.75833 -11.8607 2.95915 1189
-9.74271 -11.8417 3.00426 1319
-9.73689 -11.8347 3.05225 1349
-9.75071 -11.8515 3.10629 1161
-9.74469 -11.8441 3.15431 790
-10.6555 -12.9512 3.49452 530
-10.6585 -12.9549 3.55022 478
-10.6418 -12.9345 3.5995 422
-10.9693 -13.3326 3.76375 455
-10.9521 -13.3117 3.81448 563
-10.9447 -13.3027 3.86846 558
-11.0059 -13.377 3.94645 451
-11.8813 -14.4411 4.31421 388
-11.667 -14.1805 4.29862 394
-11.6585 -14.1703 4.35614 380
-12.4431 -15.1239 4.70761 398
-12.4143 -15.0889 4.76162 419
-12.405 -15.0775 4.82285 417
-12.3955 -15.066 4.88403 385
-12.3956 -15.0662 4.94899 326
-12.3859 -15.0544 5.01012 273
-6.20416 -7.47013 -3.78848 283
-6.212 -7.47957 -3.75819 298
-6.21978 -7.48893 -3.72786 307
-6.2369 -7.50955 -3.70332 263
-6.65622 -8.01444 -3.85077 263
-6.66419 -8.02402 -3.81824 316
-6.67208 -8.03353 -3.78568 326
-6.67044 -8.03155 -3.74753 335
-6.66871 -8.02947 -3.70943 304
-6.67639 -8.03871 -3.67685 282
-7.09581 -8.54372 -3.72218 291
-7.08439 -8.52997 -3.67714 345
-7.10157 -8.55066 -3.64763 399
-7.10912 -8.55975 -3.61292 429
-7.12619 -8.58031 -3.58319 395
-7.26804 -8.7511 -3.61813 371
-7.27553 -8.76012 -3.58259 401
-7.28295 -8.76905 -3.54701 464
-7.2903 -8.7779 -3.5114 516
-7.29757 -8.78666 -3.47575 481
-7.48814 -9.01611 -3.53025 457
-7.49546 -9.02492 -3.49362 625
-7.49303 -9.02199 -3.45231 850
-7.50018 -9.03061 -3.41566 995
-7.50726 -9.03913 -3.37898 1050
-7.50457 -9.0359 -3.33775 1072
-7.53091 -9.06761 -3.30996 983
-7.5475 -9.08758 -3.27754 857
-7.67099 -9.23627 -3.293 917
-7.66809 -9.23278 -3.25115 972
-7.67484 -9.24091 -3.21364 1000
-7.68152 -9.24895 -3.1761 907
-7.75643 -9.33914 -3.16773 810
-7.76301 -9.34706 -3.12978 838
-7.77929 -9.36667 -3.09587 810
-7.92269 -9.53933 -3.1142 920
-7.91937 -9.53534 -3.07146 954
-7.91596 -9.53123 -3.02877 876
-7.98111 -9.60966 -3.01334 844
-8.04627 -9.68812 -2.99729 978
-8.0525 -9.69563 -2.95791 1001
-8.1373 -9.79773 -2.9484 1001
-8.18279 -9.85251 -2.92333 1242
-8.18888 -9.85984 -2.88329 1387
-8.19489 -9.86707 -2.84321 1390
-8.20081 -9.8742 -2.8031 1157
-8.29546 -9.98816 -2.79441 847
-8.30128 -9.99518 -2.75381 833
-8.4256 -10.1449 -2.75394 971
-8.43134 -10.1518 -2.71269 1045
-8.50626 -10.242 -2.69452 1057
-8.52179 -10.2607 -2.65612 1145
-8.53724 -10.2793 -2.6176 1046
-8.59228 -10.3456 -2.59157 995
-8.61754 -10.376 -2.55571 1029
-8.62288 -10.3824 -2.51352 950
-8.64801 -10.4126 -2.47732 875
-8.66313 -10.4309 -2.43793 1004
-8.66824 -10.437 -2.39552 1536
-8.67326 -10.4431 -2.35308 1876
-8.68815 -10.461 -2.31342 1533
-8.69301 -10.4668 -2.27088 1156
-8.69778 -10.4726 -2.22832 879
-8.71244 -10.4902 -2.18839 662
-9.25582 -11.1445 -2.28685 522
-9.26062 -11.1503 -2.24152 713
-9.25534 -11.1439 -2.19364 898
-9.29993 -11.1976 -2.15816 1030
-9.30447 -11.2031 -2.11261 1280
-9.29892 -11.1964 -2.06466 1483
-9.30327 -11.2016 -2.01911 1395
-9.29752 -11.1947 -1.97127 1195
-9.29167 -11.1876 -1.92351 1142
-9.29574 -11.1925 -1.878 1364
-9.30974 -11.2094 -1.83458 1644
-9.31363 -11.2141 -1.78898 1604
-9.32746 -11.2307 -1.74538 1491
-9.34121 -11.2473 -1.70166 1261
-9.56574 -11.5176 -1.69819 1178
-9.54926 -11.4978 -1.64758 1438
-9.55277 -11.502 -1.6008 1745
-9.54614 -11.494 -1.55222 1464
-9.49918 -11.4375 -1.49684 1277
-9.49233 -11.4293 -1.44863 1258
-9.46525 -11.3967 -1.39725 1193
-9.45819 -11.3882 -1.34931 1128
-9.4309 -11.3553 -1.2984 998
-9.42364 -11.3465 -1.25073 841
-9.46665 -11.3983 -1.21027 783
-9.43905 -11.3651 -1.15977 1082
-9.4315 -11.356 -1.11221 1222
-9.40368 -11.3225 -1.06218 1089
-9.36567 -11.2768 -1.01121 1033
-9.35782 -11.2673 -0.964156 1147
-9.35995 -11.2699 -0.918321 1054
-9.31153 -11.2116 -0.867087 979
-9.31348 -11.2139 -0.821481 1016
-9.30523 -11.204 -0.774887 833
-9.27669 -11.1696 -0.726527 944
-9.26825 -11.1595 -0.680215 1025
-9.25971 -11.1492 -0.633994 770
-9.26118 -11.1509 -0.588644 499
-9.22214 -11.1039 -0.540372 543
-9.22343 -11.1055 -0.495208 752
-9.2044 -11.0826 -0.448779 749
-9.18529 -11.0596 -0.402545 679
-9.15596 -11.0243 -0.355975 646
-9.14676 -11.0132 -0.310659 549
-9.13747 -11.002 -0.265438 527
-9.1382 -11.0029 -0.220693 441
-9.1085 -10.9671 -0.174955 411
-9.09894 -10.9556 -0.130073 545
-9.08928 -10.944 -0.0852885 499
-9.07953 -10.9322 -0.0406019 391
-9.0697 -10.9204 0.00398658 449
-9.04965 -10.8963 0.0485568 488
-9.02952 -10.872 0.0929282 453
-9.02953 -10.872 0.137139 422
-8.98899 -10.8232 0.181072 591
-8.97871 -10.8108 0.224964 820
-8.96833 -10.7983 0.268754 760
-8.95788 -10.7857 0.312443 624
-8.93721 -10.7609 0.355762 514
-8.9367 -10.7602 0.399516 492
-8.91586 -10.7352 0.44253 454
-8.91517 -10.7343 0.486178 555
-8.90427 -10.7212 0.529355 664
-8.87307 -10.6836 0.571391 597
-8.87212 -10.6825 0.614827 496
-8.86097 -10.6691 0.657641 599
-8.84974 -10.6555 0.70035 842
-8.84853 -10.6541 0.743671 1102
-8.84723 -10.6525 0.786986 1201
-8.81553 -10.6144 0.827842 1159
-8.80397 -10.6004 0.870126 1339
-8.78221 -10.5742 0.911386 1572
-8.77048 -10.5601 0.953406 1576
-8.73847 -10.5216 0.993285 1692
-8.74676 -10.5316 1.03712 1506
-8.72469 -10.505 1.0777 1185
-8.70254 -10.4783 1.11807 991
-8.72066 -10.5001 1.1631 917
-8.71852 -10.4976 1.20578 1130
-8.71629 -10.4949 1.24845 894
-8.64343 -10.4071 1.28155 899
-8.65112 -10.4164 1.32527 1128
-10.2401 -12.3297 1.59897 1113
-10.227 -12.3139 1.64763 1310
-10.2139 -12.298 1.69618 1252
-10.2006 -12.282 1.74461 1150
-10.1972 -12.278 1.79459 1101
-9.98263 -12.0196 1.80859 1036
-9.96912 -12.0033 1.85573 1080
-9.96558 -11.9991 1.90457 1179
-9.96194 -11.9947 1.95339 1208
-9.93811 -11.966 1.99837 1053
-9.90417 -11.9251 2.04117 1219
-9.89021 -11.9083 2.08767 1953
-9.89624 -11.9156 2.13818 2081
-9.90215 -11.9227 2.18876 1707
-9.89793 -11.9176 2.23727 1625
-9.87359 -11.8883 2.28134 1713
-9.85917 -11.871 2.32744 1495
-9.73458 -11.7209 2.34806 1234
-9.75005 -11.7396 2.40045 1251
-9.78541 -11.7821 2.45782 1524
-9.76067 -11.7523 2.50084 1629
-9.74584 -11.7345 2.54614 1438
-9.85072 -11.8608 2.62196 1316
-9.84564 -11.8547 2.6702 1781
-9.84045 -11.8484 2.71843 1903
-9.83517 -11.8421 2.76663 1744
-9.82979 -11.8356 2.8148 1612
-9.83428 -11.841 2.86574 1652
-9.8287 -11.8343 2.91391 1622
-9.82303 -11.8274 2.96205 1493
-9.78744 -11.7846 3.00132 1442
-9.78159 -11.7775 3.04925 1373
-9.80542 -11.8062 3.10629 1146
-9.79936 -11.7989 3.15431 775
-10.7153 -12.9018 3.49452 616
-10.7084 -12.8935 3.54702 566
-10.7015 -12.8851 3.5995 503
-11.1793 -13.4605 3.81308 433
-11.0136 -13.2609 3.81448 488
-11.0061 -13.2519 3.86846 479
-11.0775 -13.3379 3.94988 427
-11.948 -14.386 4.31421 409
-11.9395 -14.3758 4.3728 369
-12.5123 -15.0654 4.64261 339
-12.5031 -15.0544 4.70398 383
-12.484 -15.0313 4.76162 402
-12.4746 -15.02 4.82285 380
-12.465 -15.0085 4.88403 338
-12.4554 -14.9969 4.94516 277
-6.23942 -7.4407 -3.78848 277
-6.2473 -7.4501 -3.75819 282
-6.26457 -7.4707 -3.73373 286
-6.28181 -7.49125 -3.70914 257
-6.70206 -7.99241 -3.81824 294
-6.70049 -7.99054 -3.78008 307
-6.70835 -7.99992 -3.74753 309
-6.70661 -7.99784 -3.70943 279
-6.67613 -7.96149 -3.65503 277
-7.10732 -8.4757 -3.70652 296
-7.11504 -8.4849 -3.67197 366
-7.13231 -8.50549 -3.64251 429
-7.14953 -8.52603 -3.61292 468
-7.1667 -8.5465 -3.58319 429
-7.17416 -8.5554 -3.54835 384
-7.30722 -8.71408 -3.57765 399
-7.31467 -8.72297 -3.54212 481
-7.32205 -8.73177 -3.50655 557
-7.32935 -8.74048 -3.47095 529
-7.356 -8.77226 -3.44481 479
-7.53806 -8.98937 -3.49362 521
-7.53561 -8.98645 -3.45231 703
-7.53308 -8.98342 -3.41106 848
-7.54019 -8.99191 -3.37442 939
-7.53748 -8.98867 -3.33324 1018
-7.56395 -9.02025 -3.3055 971
-7.58062 -9.04013 -3.27313 933
-7.58746 -9.04828 -3.23626 878
-7.59422 -9.05634 -3.19936 760
-7.70867 -9.19282 -3.20937 760
-7.72518 -9.21251 -3.1761 723
-7.73181 -9.22042 -3.13852 719
-7.80713 -9.31024 -3.12978 756
-7.80384 -9.30632 -3.08772 739
-7.96772 -9.50175 -3.1142 931
-7.97423 -9.50952 -3.07543 997
-7.97081 -9.50543 -3.0327 915
-8.01661 -9.56005 -3.00945 807
-8.03277 -9.57933 -2.97428 848
-8.09827 -9.65744 -2.95791 826
-8.18355 -9.75914 -2.9484 947
-8.21941 -9.80189 -2.91965 1170
-8.23542 -9.82099 -2.88329 1294
-8.24146 -9.8282 -2.84321 1290
-8.24742 -9.83531 -2.8031 1065
-8.33268 -9.93698 -2.79092 880
-8.33854 -9.94396 -2.75036 956
-8.47348 -10.1049 -2.75394 979
-8.47926 -10.1118 -2.71269 1027
-8.55461 -10.2016 -2.69452 864
-8.57022 -10.2203 -2.65612 949
-8.5758 -10.2269 -2.6144 906
-8.66105 -10.3286 -2.59788 966
-8.66652 -10.3351 -2.55571 1005
-8.67189 -10.3415 -2.51352 955
-8.69716 -10.3716 -2.47732 922
-8.70238 -10.3778 -2.43498 1088
-8.71751 -10.3959 -2.39552 1783
-8.72256 -10.4019 -2.35308 2212
-8.73753 -10.4198 -2.31342 1758
-8.74242 -10.4256 -2.27088 1328
-8.74722 -10.4313 -2.22832 1065
-8.76196 -10.4489 -2.18839 853
-8.76659 -10.4544 -2.14574 570
-9.28314 -11.0704 -2.23382 671
-9.28786 -11.0761 -2.18861 742
-9.30254 -11.0936 -2.14584 880
-9.31713 -11.111 -2.10294 1141
-9.32159 -11.1163 -2.05756 1392
-9.33602 -11.1335 -2.01448 1426
-9.33023 -11.1266 -1.96674 1429
-9.3344 -11.1316 -1.92129 1646
-9.33849 -11.1364 -1.87583 2099
-9.35257 -11.1532 -1.83246 2394
-9.35648 -11.1579 -1.78691 2118
-9.36029 -11.1624 -1.74134 1753
-9.3842 -11.191 -1.69969 1396
-9.58981 -11.4361 -1.69242 1005
-9.59343 -11.4405 -1.64571 1271
-9.59696 -11.4447 -1.59897 1399
-9.59029 -11.4367 -1.55045 1182
-9.54305 -11.3804 -1.49511 1125
-9.52604 -11.3601 -1.44528 1038
-9.51905 -11.3518 -1.39725 935
-9.4917 -11.3191 -1.34616 941
-9.4845 -11.3106 -1.2984 947
-9.49745 -11.326 -1.25368 925
-9.50019 -11.3293 -1.20742 1010
-9.49269 -11.3203 -1.15977 1126
-9.45469 -11.275 -1.10823 1130
-9.43685 -11.2537 -1.05962 1247
-9.42905 -11.2444 -1.01243 1053
-9.40086 -11.2108 -0.962979 917
-9.38271 -11.1892 -0.914939 776
-9.36446 -11.1674 -0.867087 844
-9.35626 -11.1576 -0.820453 905
-9.32765 -11.1235 -0.771953 772
-9.32942 -11.1256 -0.726527 718
-9.31077 -11.1034 -0.679336 790
-9.31234 -11.1053 -0.633994 652
-9.27318 -11.0585 -0.585529 482
-9.2644 -11.0481 -0.539643 619
-9.26569 -11.0496 -0.494529 808
-9.24655 -11.0268 -0.44815 882
-9.20699 -10.9796 -0.400807 793
-9.19783 -10.9687 -0.355445 719
-9.18858 -10.9577 -0.310179 502
-9.18941 -10.9586 -0.265438 387
-9.1698 -10.9353 -0.219933 333
-9.13993 -10.8996 -0.174295 389
-9.14048 -10.9003 -0.129793 532
-9.13077 -10.8887 -0.0850584 432
-9.11079 -10.8649 -0.0402414 338
-9.1009 -10.8531 0.00424724 414
-9.09092 -10.8412 0.0486372 438
-9.07067 -10.8171 0.0929587 433
-9.0605 -10.8049 0.1371 412
-9.02991 -10.7684 0.181003 644
-9.02974 -10.7682 0.224964 899
-9.01931 -10.7558 0.268754 728
-8.99862 -10.7311 0.312224 654
-8.97784 -10.7063 0.355493 760
-8.97732 -10.7057 0.399197 689
-8.96654 -10.6929 0.44253 611
-8.95567 -10.6799 0.48576 669
-8.93455 -10.6547 0.528418 853
-8.91334 -10.6294 0.570872 864
-8.91238 -10.6283 0.614259 791
-8.91134 -10.627 0.657641 782
-8.88987 -10.6014 0.699682 813
-8.88866 -10.6 0.742953 755
-8.88735 -10.5984 0.786218 701
-8.85548 -10.5604 0.827024 824
-8.82353 -10.5223 0.867524 1273
-8.82197 -10.5205 0.910469 1738
-8.78986 -10.4822 0.950506 1981
-8.77799 -10.468 0.992268 2033
-8.76603 -10.4538 1.03392 1754
-8.76413 -10.4515 1.07658 1497
-8.75201 -10.437 1.11807 1336
-8.74994 -10.4346 1.16066 1072
-8.74779 -10.432 1.20325 986
-8.73542 -10.4173 1.2445 856
-8.69255 -10.3661 1.28155 976
-8.69016 -10.3633 1.32385 1133
-10.2882 -12.269 1.59751 1290
-10.275 -12.2533 1.64612 1476
-10.2618 -12.2375 1.69462 1407
-10.2585 -12.2336 1.74461 1289
-10.2552 -12.2296 1.79459 1272
-10.2214 -12.1894 1.83942 1091
-10.1471 -12.1007 1.87688 1012
-10.1536 -12.1085 1.92812 1045
-10.0186 -11.9474 1.95339 1064
-9.9845 -11.9068 1.99645 903
-9.93017 -11.842 2.03529 1303
-9.92625 -11.8374 2.08365 1870
-9.92222 -11.8326 2.132 1905
-9.90801 -11.8156 2.17822 1649
-9.89372 -11.7986 2.22432 1579
-9.89948 -11.8054 2.27471 1545
-9.90514 -11.8122 2.32519 1378
-9.83017 -11.7228 2.35728 1260
-9.80547 -11.6933 2.40045 1282
-9.81086 -11.6998 2.4506 1396
-9.80609 -11.6941 2.49838 1420
-9.80123 -11.6883 2.54614 1217
-9.90671 -11.8141 2.62196 1333
-9.9016 -11.808 2.6702 1665
-9.84623 -11.7419 2.70517 1781
-9.89107 -11.7954 2.76663 1674
-9.88566 -11.789 2.8148 1710
-9.89017 -11.7943 2.86574 1882
-9.87456 -11.7757 2.91106 1972
-9.84885 -11.7451 2.95336 1820
-9.83307 -11.7262 2.99837 1570
-9.82719 -11.7192 3.04626 1364
-9.82122 -11.7121 3.09411 1120
-9.81515 -11.7049 3.14194 714
-10.7762 -12.8509 3.49452 648
-10.7693 -12.8427 3.54702 599
-10.7623 -12.8344 3.5995 523
-11.2428 -13.4074 3.81308 498
-11.2254 -13.3866 3.86454 444
-11.1979 -13.3538 3.91248 433
-11.1901 -13.3446 3.96705 424
-12.0159 -14.3293 4.31421 395
-12.0074 -14.3191 4.3728 345
-12.5834 -15.0061 4.64261 287
-12.5643 -14.9833 4.70035 346
-12.5549 -14.9721 4.76162 362
-12.5455 -14.9608 4.82285 329
-12.5359 -14.9494 4.88403 278
-6.29088 -7.41648 -3.79445 254
-6.30833 -7.43705 -3.77003 252
-6.32574 -7.45758 -3.74548 259
-6.513 -7.67834 -3.7885 281
-6.53049 -7.69895 -3.76281 278
-6.53837 -7.70825 -3.7313 262
-6.73758 -7.94311 -3.8126 267
-6.74557 -7.95252 -3.78008 278
-6.75348 -7.96185 -3.74753 274
-6.68451 -7.88053 -3.67092 270
-6.6922 -7.8896 -3.63866 278
-6.96936 -8.21635 -3.7578 260
-6.97723 -8.22563 -3.72416 275
-6.97538 -8.22345 -3.68516 267
-6.99276 -8.24395 -3.65675 283
-7.14547 -8.42397 -3.7013 307
-7.1629 -8.44453 -3.67197 360
-7.1706 -8.4536 -3.63738 404
-7.19763 -8.48546 -3.61292 437
-7.23433 -8.52874 -3.59325 423
-7.23215 -8.52616 -3.55333 409
-7.36611 -8.68409 -3.58259 430
-7.36388 -8.68146 -3.54212 489
-7.36156 -8.67872 -3.50171 543
-7.35914 -8.67588 -3.46136 540
-7.36641 -8.68444 -3.42582 519
-7.4225 -8.75057 -3.41374 437
-7.57652 -8.93215 -3.44766 554
-7.55436 -8.90602 -3.39725 757
-7.5713 -8.926 -3.36531 856
-7.57837 -8.93433 -3.32873 964
-7.59519 -8.95416 -3.29658 909
-7.63163 -8.99711 -3.27313 910
-7.64835 -9.01683 -3.24062 907
-7.65516 -9.02486 -3.20367 819
-7.6619 -9.03281 -3.16669 687
-7.85612 -9.26178 -3.20986 648
-7.78383 -9.17655 -3.13852 673
-7.80032 -9.196 -3.10503 710
-7.9949 -9.42539 -3.14479 698
-8.01142 -9.44487 -3.11017 921
-8.02788 -9.46427 -3.07543 1011
-8.03436 -9.4719 -3.03664 937
-8.04075 -9.47944 -2.99781 866
-8.08682 -9.53375 -2.97428 841
-8.09308 -9.54114 -2.9352 824
-8.24856 -9.72444 -2.95214 776
-8.2747 -9.75526 -2.91965 925
-8.28086 -9.76251 -2.87965 1002
-8.28693 -9.76968 -2.83961 978
-8.29293 -9.77674 -2.79955 831
-8.38874 -9.8897 -2.79092 1057
-8.39464 -9.89665 -2.75036 1158
-8.40045 -9.9035 -2.70978 1099
-8.41618 -9.92205 -2.67251 912
-8.55206 -10.0822 -2.67472 715
-8.62788 -10.1716 -2.65612 660
-8.6335 -10.1782 -2.6144 667
-8.71933 -10.2794 -2.59788 679
-8.6043 -10.1438 -2.51847 811
-8.61969 -10.162 -2.47992 884
-8.75567 -10.3223 -2.47732 858
-8.76092 -10.3285 -2.43498 1061
-8.77616 -10.3464 -2.39552 1693
-8.78124 -10.3524 -2.35308 2068
-8.79632 -10.3702 -2.31342 1622
-8.80124 -10.376 -2.27088 1238
-8.80607 -10.3817 -2.22832 1054
-8.82091 -10.3992 -2.18839 888
-8.82557 -10.4047 -2.14574 628
-9.34559 -11.0178 -2.23382 584
-9.32001 -10.9876 -2.18106 703
-9.32465 -10.9931 -2.13597 1086
-9.33933 -11.0104 -2.09328 1583
-9.37418 -11.0515 -2.0552 1901
-9.37856 -11.0566 -2.00984 1946
-9.38286 -11.0617 -1.96447 1971
-9.38706 -11.0666 -1.91907 2304
-9.39117 -11.0715 -1.87366 2715
-9.40534 -11.0882 -1.83034 2863
-9.40927 -11.0928 -1.78484 2431
-9.41311 -11.0974 -1.73932 1929
-9.42702 -11.1137 -1.69575 1374
-9.64416 -11.3697 -1.6905 1094
-9.64781 -11.374 -1.64383 1199
-9.64118 -11.3662 -1.59533 1216
-9.63445 -11.3583 -1.5469 1337
-9.6378 -11.3622 -1.50028 1209
-9.57995 -11.294 -1.44361 1128
-9.54234 -11.2497 -1.39076 1096
-9.55556 -11.2653 -1.34616 960
-9.5585 -11.2688 -1.29993 814
-9.57155 -11.2841 -1.25516 883
-9.5539 -11.2633 -1.20599 1046
-9.54636 -11.2544 -1.15839 967
-9.49789 -11.1973 -1.10557 1040
-9.50034 -11.2002 -1.05962 1240
-9.48227 -11.1789 -1.01121 1065
-9.44368 -11.1334 -0.960625 890
-9.43562 -11.1239 -0.913811 747
-9.40702 -11.0902 -0.864932 809
-9.39876 -11.0804 -0.818397 1052
-9.39041 -11.0706 -0.771953 950
-9.38196 -11.0606 -0.725599 648
-9.37341 -11.0505 -0.679336 543
-9.34431 -11.0162 -0.631508 550
-9.33556 -11.0059 -0.585529 656
-9.30626 -10.9714 -0.538185 710
-9.30756 -10.9729 -0.493171 835
-9.29853 -10.9623 -0.447521 867
-9.27917 -10.9394 -0.401386 723
-9.24948 -10.9044 -0.354916 577
-9.24016 -10.8935 -0.309699 410
-9.23075 -10.8824 -0.264578 275
-9.20078 -10.847 -0.218794 313
-9.19118 -10.8357 -0.173965 419
-9.19174 -10.8364 -0.129513 469
-9.18196 -10.8248 -0.0848283 476
-9.15161 -10.7891 -0.039881 487
-9.15189 -10.7894 0.00437757 443
-9.14184 -10.7775 0.0487177 374
-9.12145 -10.7535 0.0929893 413
-9.10098 -10.7294 0.137061 474
-9.09066 -10.7172 0.181003 528
-9.09049 -10.717 0.224964 655
-9.07999 -10.7046 0.268754 540
-9.03867 -10.6559 0.311786 648
-9.028 -10.6433 0.355224 856
-9.01723 -10.6306 0.39856 783
-9.00638 -10.6179 0.441793 654
-9.00568 -10.617 0.485341 637
-8.98442 -10.592 0.52795 838
-8.96307 -10.5668 0.570354 958
-8.96211 -10.5657 0.613691 874
-8.96106 -10.5644 0.657023 761
-8.93945 -10.5389 0.699014 655
-8.92799 -10.5254 0.741518 574
-8.88576 -10.4756 0.781613 580
-8.87414 -10.462 0.823755 946
-8.86244 -10.4481 0.86579 1509
-8.86087 -10.4463 0.908635 2040
-8.849 -10.4323 0.950506 2189
-8.83704 -10.4182 0.992268 1931
-8.825 -10.404 1.03392 1762
-8.81288 -10.3897 1.07547 1704
-8.81089 -10.3874 1.11807 1570
-8.7986 -10.3729 1.15945 1335
-8.78623 -10.3583 1.20072 1159
-8.75336 -10.3196 1.23924 1248
-8.75103 -10.3168 1.28155 1283
-8.74862 -10.314 1.32385 1121
-10.3472 -12.1986 1.59605 1169
-10.334 -12.183 1.64461 1270
-10.3308 -12.1793 1.69462 1186
-10.3276 -12.1754 1.74461 1166
-10.3242 -12.1715 1.79459 1235
-10.2596 -12.0953 1.83428 1177
-10.2154 -12.0432 1.87688 1121
-10.2117 -12.0389 1.92631 1088
-10.2284 -12.0585 1.97945 953
-10.011 -11.8022 1.98881 1058
-9.98682 -11.7737 2.03333 1423
-9.97271 -11.7571 2.07963 1666
-9.96867 -11.7523 2.12788 1739
-9.97467 -11.7594 2.17822 1830
-9.96028 -11.7424 2.22432 1770
-9.9458 -11.7254 2.2703 1602
-9.94137 -11.7201 2.31841 1338
-9.96724 -11.7506 2.37343 1193
-9.98285 -11.769 2.42636 1218
-9.9781 -11.7634 2.47466 1210
-9.98337 -11.7696 2.52538 1163
-9.97841 -11.7638 2.57368 1061
-9.96325 -11.7459 2.6194 1106
-9.94801 -11.728 2.665 1383
-9.92257 -11.698 2.70782 1684
-9.92734 -11.7036 2.75852 1522
-9.95217 -11.7329 2.8148 1583
-9.95671 -11.7382 2.86574 1720
-9.93091 -11.7078 2.90821 1825
-9.90504 -11.6773 2.95046 1935
