-10.7238 -4.46571 -0.697475 1744
-10.726 -4.46664 -0.661279 1775
-10.6698 -4.44323 -0.621152 2035
-10.6718 -4.44406 -0.58514 2251
-10.6591 -4.43878 -0.548241 2179
-10.6609 -4.43953 -0.512267 2029
-10.6334 -4.42808 -0.474723 1835
-10.6058 -4.41657 -0.437373 1819
-10.6072 -4.41719 -0.401581 2030
-10.5794 -4.4056 -0.36452 2110
-10.5807 -4.40612 -0.328818 2095
-10.5964 -4.41269 -0.293645 1883
-10.4806 -4.36446 -0.254026 1725
-10.4669 -4.35877 -0.218229 2190
-10.4678 -4.35912 -0.182912 2592
-10.4685 -4.35943 -0.147593 2645
-10.4692 -4.35969 -0.112271 2285
-10.382 -4.32339 -0.0755483 2073
-10.4117 -4.33574 -0.0408883 2027
-10.3974 -4.32979 -0.00562774 2084
-10.3976 -4.32988 0.0294506 2010
-10.3977 -4.32993 0.0645296 2147
-10.3977 -4.32994 0.0996088 2199
-10.383 -4.32382 0.134621 2029
-10.2367 -4.26287 0.168488 2409
-10.2364 -4.26276 0.203017 3303
-10.236 -4.2626 0.237545 3768
-10.2209 -4.25631 0.271805 3900
-10.2203 -4.25606 0.306279 3559
-10.205 -4.24969 0.340386 3093
-10.2042 -4.24937 0.374806 2529
-10.1887 -4.24292 0.408758 1978
-10.1878 -4.24251 0.443122 1642
-10.1721 -4.23597 0.476917 1445
-10.1563 -4.2294 0.510609 1463
-10.1112 -4.21062 0.542867 1385
-10.0952 -4.20397 0.576251 1530
-10.0791 -4.19728 0.60953 1612
-10.063 -4.19055 0.642705 1781
-10.0467 -4.18377 0.675774 1860
-10.045 -4.18304 0.709652 1784
-10.0285 -4.17619 0.74256 1905
-9.99739 -4.16323 0.774348 2091
-9.96618 -4.15023 0.80593 1936
-9.94946 -4.14327 0.838419 1939
-9.94723 -4.14234 0.871964 1824
-9.90118 -4.12317 0.901863 1651
-9.89876 -4.12216 0.935243 1604
-9.88169 -4.11505 0.967302 1420
-9.86452 -4.1079 0.999253 1155
-9.84726 -4.10071 1.0311 1098
-9.84447 -4.09955 1.06429 1205
-9.82703 -4.09229 1.09597 1286
-9.82405 -4.09104 1.12909 1313
-9.80643 -4.08371 1.1606 1320
-9.80326 -4.08239 1.19365 1306
-9.81453 -4.08708 1.22841 1320
-9.81116 -4.08568 1.26149 1352
-9.83674 -4.09633 1.29818 2040
-3.90473 -1.42023 -3.1211 372
-3.91421 -1.42368 -3.1084 426
-3.92366 -1.42712 -3.09568 407
-3.93307 -1.43054 -3.08292 389
-3.96594 -1.44249 -3.08957 378
-3.97533 -1.44591 -3.07667 323
-4.0083 -1.4579 -3.08302 305
-4.00584 -1.45701 -3.06038 275
-4.16709 -1.51566 -3.14851 271
-4.17666 -1.51914 -3.13494 310
-4.18618 -1.5226 -3.12134 388
-4.19567 -1.52605 -3.1077 487
-4.20511 -1.52949 -3.09403 559
-4.21451 -1.53291 -3.08033 709
-4.23594 -1.5407 -3.07588 814
-4.2332 -1.5397 -3.05283 1095
-4.24248 -1.54308 -3.03904 1360
-4.276 -1.55527 -3.04353 1426
-4.28526 -1.55864 -3.02959 1833
-4.29447 -1.56199 -3.01562 2086
-4.30364 -1.56532 -3.00162 1952
-4.32502 -1.5731 -2.99658 2069
-4.33413 -1.57641 -2.98248 2048
-4.3432 -1.57971 -2.96835 1624
-4.45084 -1.61886 -3.02514 1632
-4.46004 -1.62221 -3.01062 1485
-4.4692 -1.62554 -2.99606 1235
-4.46591 -1.62434 -2.97273 1021
-4.46252 -1.62311 -2.94946 865
-4.47149 -1.62638 -2.93489 785
-4.48043 -1.62962 -2.9203 723
-4.50182 -1.63741 -2.91426 607
-4.92425 -1.79105 -3.18125 549
-4.93391 -1.79456 -3.16514 581
-4.93094 -1.79348 -3.14054 637
-5.10437 -1.85657 -3.23373 745
-5.11419 -1.86014 -3.21701 865
-5.13661 -1.86829 -3.20859 875
-5.13366 -1.86722 -3.18348 845
-5.14333 -1.87073 -3.16667 755
-5.30571 -1.9298 -3.24819 811
-5.37934 -1.95658 -3.27157 833
-5.38926 -1.96019 -3.25393 977
-5.41193 -1.96843 -3.24432 1246
-5.40895 -1.96735 -3.21855 1277
-5.41872 -1.9709 -3.20081 1095
-5.42843 -1.97443 -3.18304 835
-5.46389 -1.98733 -3.18103 647
-5.48646 -1.99554 -3.17096 683
-5.54786 -2.01787 -3.1842 608
-5.73906 -2.08742 -3.27473 622
-5.74899 -2.09103 -3.25588 788
-5.74586 -2.08989 -3.22932 880
-5.76869 -2.09819 -3.21809 1131
-5.77845 -2.10174 -3.19915 1274
-5.78816 -2.10527 -3.18017 1229
-5.81092 -2.11355 -3.16866 1239
-5.82053 -2.11705 -3.14958 1320
-5.84324 -2.12531 -3.13788 1358
-5.85277 -2.12877 -3.11868 1247
-5.88862 -2.14181 -3.11411 1051
-5.89807 -2.14525 -3.09476 792
-6.25154 -2.27381 -3.2636 1276
-6.27469 -2.28223 -3.25023 1546
-6.29782 -2.29065 -3.23674 1495
-6.30764 -2.29422 -3.21602 1200
-6.31739 -2.29777 -3.19527 849
-6.38044 -2.3207 -3.20255 659
-6.3768 -2.31937 -3.17458 648
-6.38643 -2.32288 -3.1536 589
-6.4362 -2.34098 -3.15323 532
-6.48603 -2.3591 -3.15255 481
-6.64345 -2.41636 -3.20591 871
-6.66664 -2.42479 -3.19078 1281
-6.67632 -2.42831 -3.16883 1313
-6.69943 -2.43672 -3.1535 1168
-6.72252 -2.44512 -3.13804 1263
-6.74558 -2.45351 -3.12246 1473
-6.76862 -2.46189 -3.10676 1613
-6.77805 -2.46532 -3.08447 1302
-6.92339 -2.51818 -3.12643 1002
-6.96011 -2.53153 -3.11638 932
-6.9832 -2.53993 -3.09978 997
-7.01992 -2.55329 -3.08934 979
-7.05664 -2.56665 -3.07869 888
-7.09336 -2.58 -3.06783 731
-7.23977 -2.63326 -3.10599 738
-7.27665 -2.64667 -3.09433 952
-7.28604 -2.65008 -3.07033 1189
-7.29536 -2.65347 -3.04629 1199
-7.30461 -2.65684 -3.02223 1228
-7.29999 -2.65516 -2.99221 1309
-7.33671 -2.66851 -2.97989 1007
-7.4426 -2.70703 -2.9965 1038
-7.45169 -2.71034 -2.97195 952
-7.54393 -2.74388 -2.98179 867
-7.56687 -2.75223 -2.96258 857
-7.63148 -2.77573 -2.96019 763
-7.65438 -2.78406 -2.9406 780
-7.66332 -2.78731 -2.91533 710
-7.76983 -2.82605 -2.92857 696
-7.80667 -2.83945 -2.91383 756
-7.85747 -2.85792 -2.90428 639
-7.85229 -2.85604 -2.87297 504
-7.91709 -2.87961 -2.86831 482
-7.93984 -2.88788 -2.84743 485
-7.90635 -2.8757 -2.80554 397
-8.0555 -2.92995 -2.83119 390
-8.06411 -2.93308 -2.80458 452
-8.11492 -2.95156 -2.79318 430
-8.12341 -2.95465 -2.76637 453
-8.14595 -2.96285 -2.74452 519
-8.15429 -2.96589 -2.71761 558
-8.16256 -2.96889 -2.69066 496
-8.18492 -2.97703 -2.66854 456
-8.19305 -2.97998 -2.64149 382
-8.18689 -2.97774 -2.60967 316
-8.55006 -3.10983 -2.70017 283
-8.6172 -3.13425 -2.62896 259
-8.68226 -3.15792 -2.61851 251
-8.70451 -3.16601 -2.59426 307
-8.79815 -3.20007 -2.59196 389
-8.82034 -3.20814 -2.56723 348
-9.42669 -3.42868 -2.55086 446
-9.43446 -3.43151 -2.51965 684
-9.42774 -3.42906 -2.48444 821
-9.43531 -3.43182 -2.45322 1190
-9.45721 -3.43978 -2.42587 1545
-9.45018 -3.43723 -2.39073 1356
-9.41413 -3.42411 -2.34807 928
-9.39238 -3.4162 -2.30943 654
-9.38497 -3.41351 -2.27464 751
-9.31952 -3.3897 -2.22536 995
-9.34081 -3.39745 -2.19811 1474
-9.33304 -3.39462 -2.16364 1599
-9.32515 -3.39175 -2.12925 1414
-9.30263 -3.38356 -2.09149 1472
-9.26544 -3.37003 -2.0505 1301
-9.21356 -3.35116 -2.00643 1335
-9.21971 -3.3534 -1.97594 1369
-9.15297 -3.32912 -1.92916 1853
-9.17347 -3.33658 -1.90208 2568
-9.17932 -3.33871 -1.87172 2927
-9.09754 -3.30896 -1.82271 2909
-9.10315 -3.31101 -1.79261 3012
-9.09407 -3.3077 -1.75948 2183
-9.04103 -3.28841 -1.71755 2551
-9.0317 -3.28502 -1.68473 3478
-9.03691 -3.28691 -1.65485 4376
-9.01274 -3.27812 -1.61932 4369
-8.98845 -3.26929 -1.58398 4382
-8.9787 -3.26574 -1.55153 4993
-8.96885 -3.26216 -1.51917 5065
-8.94421 -3.25319 -1.48427 4166
-8.90478 -3.23885 -1.44698 3197
-8.89459 -3.23515 -1.41501 3838
-8.8843 -3.2314 -1.38312 4075
-8.88861 -3.23297 -1.35374 3695
-8.83399 -3.21311 -1.31486 3191
-8.82338 -3.20925 -1.28333 3588
-8.81268 -3.20535 -1.25188 3572
-8.8166 -3.20678 -1.22274 3278
-8.82044 -3.20818 -1.19358 2962
-8.80945 -3.20418 -1.16229 2115
-8.81311 -3.20551 -1.13316 1323
-8.80192 -3.20144 -1.10199 1306
-8.79064 -3.19734 -1.07091 1418
-8.79403 -3.19857 -1.04184 1159
-8.85644 -3.22127 -1.02026 831
-8.85967 -3.22245 -0.990975 671
-8.86283 -3.22359 -0.961676 650
-8.86589 -3.22471 -0.932367 662
-8.85408 -3.22041 -0.90137 596
-9.03457 -3.28606 -0.891618 473
-9.05223 -3.29248 -0.863311 548
-9.05501 -3.29349 -0.833367 473
-9.08732 -3.30525 -0.80637 364
-10.5274 -3.82902 -0.914892 370
-10.5896 -3.85165 -0.885516 529
-10.5924 -3.85268 -0.850416 671
-10.6841 -3.88604 -0.822985 768
-10.6868 -3.887 -0.787568 792
-10.6745 -3.88253 -0.750963 850
-10.6472 -3.87261 -0.713318 1067
-10.8425 -3.94365 -0.692073 1509
-10.8448 -3.94447 -0.656125 1869
-10.8469 -3.94525 -0.620171 2176
-10.8341 -3.9406 -0.583278 2563
-10.8361 -3.9413 -0.54736 2695
-10.823 -3.93656 -0.510604 2422
-10.8247 -3.93718 -0.474723 2118
-10.7818 -3.92155 -0.436641 2209
-10.7833 -3.9221 -0.400899 2370
-10.7847 -3.92261 -0.365152 2420
-10.786 -3.92308 -0.329401 2489
-10.7277 -3.90187 -0.291515 2711
-10.7436 -3.90767 -0.256438 2829
-10.7297 -3.90261 -0.220392 2785
-10.6413 -3.87046 -0.18253 2574
-10.5974 -3.8545 -0.146261 2990
-10.5981 -3.85474 -0.111139 2949
-10.6284 -3.86575 -0.0764805 2683
-10.6437 -3.87132 -0.0414378 2157
-10.644 -3.87144 -0.00616076 1689
-10.5401 -3.83364 0.0297007 1863
-10.4658 -3.80663 0.0647972 2174
-10.4658 -3.80663 0.0994772 2410
-10.4955 -3.81743 0.13429 2319
-10.4953 -3.81736 0.169069 2011
-10.495 -3.81725 0.203847 1538
-10.3607 -3.7684 0.23668 1587
-10.3453 -3.76281 0.270741 1866
-10.3447 -3.7626 0.305016 2259
-10.3441 -3.76235 0.339289 2481
-10.373 -3.77288 0.374391 2462
-10.3721 -3.77255 0.408758 2137
-10.2968 -3.74514 0.440545 1761
-10.2213 -3.7177 0.47183 1530
-10.235 -3.72268 0.506304 1444
-10.2337 -3.72221 0.540207 1272
-10.2323 -3.7217 0.574107 1100
-10.2308 -3.72116 0.608001 1089
-10.2292 -3.72058 0.64189 1071
-10.1681 -3.69835 0.672317 1296
-10.1515 -3.6923 0.705082 1641
-10.1199 -3.68081 0.736776 1877
-10.1179 -3.6801 0.770293 2048
-10.101 -3.67394 0.802739 2047
-10.0988 -3.67316 0.836192 2175
-10.0817 -3.66693 0.868475 2183
-10.0794 -3.66608 0.901863 2212
-10.0769 -3.66518 0.935243 2231
-10.0595 -3.65886 0.967302 1975
-10.0569 -3.65789 1.00062 1639
-10.0393 -3.6515 1.03251 1291
-10.0216 -3.64508 1.06429 1129
-10.0039 -3.63862 1.09597 1242
-9.98604 -3.63213 1.12753 1253
-9.98292 -3.63099 1.1606 1421
-9.97969 -3.62982 1.19365 1681
-9.99116 -3.63399 1.22841 1710
-9.98773 -3.63275 1.26149 1578
-9.99899 -3.63684 1.29637 2281
-3.94157 -1.42756 -3.15072 352
-3.95115 -1.43103 -3.13791 378
-3.96069 -1.43448 -3.12507 357
-3.95847 -1.43368 -3.10243 368
-3.9679 -1.43709 -3.08957 372
-3.98908 -1.44476 -3.08635 322
-4.0339 -1.461 -3.10229 318
-4.04333 -1.46441 -3.08917 293
-4.1358 -1.49791 -3.14294 293
-4.14536 -1.50137 -3.12948 341
-4.15487 -1.50481 -3.11598 403
-4.18825 -1.5169 -3.12134 524
-4.19774 -1.52034 -3.1077 701
-4.20719 -1.52376 -3.09403 815
-4.2166 -1.52717 -3.08033 1020
-4.22597 -1.53056 -3.0666 1157
-4.23529 -1.53394 -3.05283 1345
-4.24458 -1.5373 -3.03904 1529
-4.27812 -1.54945 -3.04353 1388
-4.28737 -1.5528 -3.02959 1507
-4.29659 -1.55614 -3.01562 1572
-4.31799 -1.56389 -3.01066 1395
-4.32715 -1.56721 -2.99658 1443
-4.36083 -1.57941 -3.00039 1429
-4.36996 -1.58271 -2.98617 1337
-4.45304 -1.6128 -3.02514 1382
-4.46225 -1.61614 -3.01062 1275
-4.45902 -1.61497 -2.98728 1062
-4.46811 -1.61826 -2.97273 850
-4.46473 -1.61703 -2.94946 734
-4.4737 -1.62029 -2.93489 707
-4.48264 -1.62352 -2.9203 700
-4.50405 -1.63128 -2.91426 622
-4.92668 -1.78435 -3.18125 500
-4.93635 -1.78785 -3.16514 577
-4.92079 -1.78221 -3.13209 661
-5.1069 -1.84962 -3.23373 678
-5.11671 -1.85317 -3.21701 802
-5.12648 -1.85671 -3.20026 803
-5.1362 -1.86023 -3.18348 771
-5.14587 -1.86373 -3.16667 697
-5.30833 -1.92257 -3.24819 795
-5.38199 -1.94925 -3.27157 788
-5.40471 -1.95748 -3.26204 948
-5.41461 -1.96106 -3.24432 1245
-5.41162 -1.95998 -3.21855 1286
-5.4214 -1.96352 -3.20081 1106
-5.43111 -1.96704 -3.18304 856
-5.47949 -1.98456 -3.18893 665
-5.48918 -1.98807 -3.17096 698
-5.55061 -2.01032 -3.1842 623
-5.75487 -2.0843 -3.28249 582
-5.75184 -2.0832 -3.25588 734
-5.76172 -2.08678 -3.237 803
-5.77154 -2.09034 -3.21809 1007
-5.78131 -2.09387 -3.19915 1114
-5.79102 -2.09739 -3.18017 1074
-5.81379 -2.10564 -3.16866 1090
-5.82341 -2.10912 -3.14958 1162
-5.84613 -2.11735 -3.13788 1216
-5.85566 -2.1208 -3.11868 1141
-5.89153 -2.13379 -3.11411 1009
-5.90099 -2.13722 -3.09476 791
-6.25463 -2.2653 -3.2636 1193
-6.27779 -2.27369 -3.25023 1437
-6.30093 -2.28207 -3.23674 1380
-6.31076 -2.28563 -3.21602 1115
-6.32052 -2.28916 -3.19527 808
-6.37025 -2.30718 -3.19553 663
-6.37995 -2.31069 -3.17458 661
-6.38959 -2.31418 -3.1536 609
-6.43938 -2.33222 -3.15323 561
-6.44896 -2.33568 -3.13205 497
-6.64674 -2.40731 -3.20591 836
-6.66993 -2.41572 -3.19078 1229
-6.67962 -2.41922 -3.16883 1254
-6.70274 -2.4276 -3.1535 1098
-6.72584 -2.43597 -3.13804 1193
-6.74891 -2.44432 -3.12246 1400
-6.77196 -2.45267 -3.10676 1510
-6.78139 -2.45609 -3.08447 1214
-6.92681 -2.50875 -3.12643 970
-6.96355 -2.52206 -3.11638 915
-6.98665 -2.53043 -3.09978 935
-7.02338 -2.54373 -3.08934 859
-7.0738 -2.56199 -3.08494 784
-7.06947 -2.56042 -3.05543 693
-7.13362 -2.58365 -3.05675 664
-7.28025 -2.63676 -3.09433 869
-7.28964 -2.64016 -3.07033 1132
-7.29897 -2.64354 -3.04629 1153
-7.30822 -2.64689 -3.02223 1138
-7.30359 -2.64522 -2.99221 1184
-7.34033 -2.65852 -2.97989 906
-7.44627 -2.69689 -2.9965 984
-7.45538 -2.70019 -2.97195 879
-7.54766 -2.73361 -2.98179 835
-7.57061 -2.74192 -2.96258 881
-7.57961 -2.74518 -2.93761 769
-7.65817 -2.77363 -2.9406 749
-7.68105 -2.78192 -2.92088 692
-7.77367 -2.81547 -2.92857 702
-7.81052 -2.82882 -2.91383 716
-7.83337 -2.83709 -2.89346 573
-7.84217 -2.84028 -2.86761 467
-7.86491 -2.84851 -2.84704 477
-7.90165 -2.86182 -2.83162 481
-7.91026 -2.86494 -2.80554 386
-8.04542 -2.91389 -2.82601 355
-8.0681 -2.9221 -2.80458 417
-8.10483 -2.93541 -2.7881 416
-8.12743 -2.94359 -2.76637 437
-8.13584 -2.94664 -2.73953 510
-8.14418 -2.94966 -2.71267 560
-8.1666 -2.95778 -2.69066 490
-8.18897 -2.96588 -2.66854 431
-8.19709 -2.96882 -2.64149 388
-8.19094 -2.96659 -2.60967 361
-8.19889 -2.96948 -2.58262 297
-8.72309 -3.15933 -2.59872 308
-8.7882 -3.18291 -2.58755 376
-8.81039 -3.19095 -2.56286 313
-9.43135 -3.41585 -2.55086 352
-9.42473 -3.41345 -2.51562 521
-9.4324 -3.41623 -2.48444 712
-9.43997 -3.41897 -2.45322 1145
-9.44746 -3.42168 -2.42199 1491
-9.45485 -3.42436 -2.39073 1289
-9.43324 -3.41653 -2.35186 880
-9.41149 -3.40865 -2.31317 564
-9.38961 -3.40073 -2.27464 680
-9.32412 -3.37701 -2.22536 1036
-9.34543 -3.38473 -2.19811 1492
-9.33765 -3.38191 -2.16364 1544
-9.32976 -3.37905 -2.12925 1290
-9.30722 -3.37089 -2.09149 1253
-9.25548 -3.35215 -2.0471 1139
-9.23266 -3.34388 -2.00978 1218
-9.25339 -3.35139 -1.98255 1274
-9.17206 -3.32194 -1.93242 1643
-9.17801 -3.32409 -1.90208 2489
-9.18386 -3.32621 -1.87172 2823
-9.10203 -3.29657 -1.82271 2777
-9.10765 -3.29861 -1.79261 2866
-9.09856 -3.29532 -1.75948 2104
-9.06012 -3.28139 -1.72051 2324
-9.03617 -3.27272 -1.68473 3230
-9.04138 -3.27461 -1.65485 3979
-9.00255 -3.26054 -1.61651 4087
-8.9929 -3.25705 -1.58398 4205
-8.98314 -3.25351 -1.55153 4770
-8.97328 -3.24994 -1.51917 4782
-8.94863 -3.24102 -1.48427 3781
-8.90918 -3.22673 -1.44698 2867
-8.89898 -3.22303 -1.41501 3588
-8.9034 -3.22463 -1.38559 3957
-8.87829 -3.21554 -1.35132 3752
-8.83836 -3.20108 -1.31486 3318
-8.82775 -3.19723 -1.28333 3573
-8.81703 -3.19335 -1.25188 3656
-8.82096 -3.19477 -1.22274 3580
-8.8248 -3.19617 -1.19358 3286
-8.82856 -3.19753 -1.16441 2244
-8.81746 -3.19351 -1.13316 1355
-8.80627 -3.18946 -1.10199 1303
-8.79499 -3.18537 -1.07091 1385
-8.79838 -3.1866 -1.04184 1123
-8.86081 -3.20921 -1.02026 792
-8.86405 -3.21038 -0.990975 619
-8.86721 -3.21152 -0.961676 604
-8.87027 -3.21264 -0.932367 637
-8.85845 -3.20835 -0.90137 598
-9.03904 -3.27376 -0.891618 454
-9.05671 -3.28016 -0.863311 529
-9.05948 -3.28116 -0.833367 457
-9.12146 -3.30361 -0.809327 355
-9.18338 -3.32604 -0.784881 313
-10.5948 -3.83723 -0.885516 452
-10.5976 -3.83825 -0.850416 574
-10.6894 -3.87149 -0.822985 702
-10.692 -3.87245 -0.787568 761
-10.6649 -3.86261 -0.749783 839
-10.6525 -3.85812 -0.713318 1057
-10.8479 -3.92889 -0.692073 1425
-10.8501 -3.9297 -0.656125 1782
-10.8374 -3.9251 -0.61919 2088
-10.8395 -3.92584 -0.583278 2460
-10.8266 -3.92116 -0.546479 2634
-10.8284 -3.92182 -0.510604 2439
-10.8301 -3.92244 -0.474723 2212
-10.7871 -3.90687 -0.436641 2255
-10.7886 -3.90742 -0.400899 2368
-10.79 -3.90792 -0.365152 2420
-10.7913 -3.90839 -0.329401 2543
-10.733 -3.88726 -0.291515 2723
-10.7489 -3.89304 -0.256438 2862
-10.7499 -3.89339 -0.220825 2791
-10.6466 -3.85597 -0.18253 2537
-10.6175 -3.84546 -0.146594 2898
-10.6182 -3.84569 -0.111422 2839
-10.6336 -3.85128 -0.0764805 2593
-10.6489 -3.85683 -0.0414378 2096
-10.6344 -3.85156 -0.00602751 1717
-10.5602 -3.82468 0.0296173 1867
-10.471 -3.79238 0.0647972 2130
-10.471 -3.79238 0.0994772 2343
-10.5007 -3.80313 0.13429 2317
-10.5005 -3.80307 0.169069 2062
-10.5002 -3.80296 0.203847 1604
-10.3509 -3.7489 0.236464 1530
-10.3505 -3.74873 0.270741 1834
-10.3499 -3.74851 0.305016 2204
-10.3492 -3.74826 0.339289 2418
-10.3781 -3.75875 0.374391 2395
-10.3772 -3.75843 0.408758 2058
-10.3018 -3.73112 0.440545 1686
-10.271 -3.71995 0.473526 1452
-10.2549 -3.71413 0.506919 1300
-10.2388 -3.70827 0.540207 1155
-10.2374 -3.70777 0.574107 1014
-10.221 -3.70184 0.607236 1054
-10.2194 -3.70127 0.641076 1073
-10.188 -3.68989 0.673181 1274
-10.1714 -3.68386 0.705996 1609
-10.1249 -3.66703 0.736776 1720
-10.1378 -3.6717 0.771307 1886
-10.1357 -3.67095 0.804866 1866
-10.1038 -3.6594 0.836192 1953
-10.0867 -3.65321 0.868475 1931
-10.0844 -3.65235 0.901863 1911
-10.0819 -3.65146 0.935243 1925
-10.0645 -3.64516 0.967302 1718
-10.0618 -3.6442 1.00062 1439
-10.0443 -3.63783 1.03251 1180
-10.0266 -3.63143 1.06429 1069
-10.0088 -3.625 1.09597 1139
-9.99098 -3.61853 1.12753 1141
-9.98785 -3.6174 1.1606 1224
-9.98462 -3.61623 1.19365 1429
-9.9813 -3.61503 1.2267 1476
-9.97788 -3.61379 1.25973 1372
-9.98914 -3.61787 1.29456 2034
-3.96727 -1.23479 -3.1211 374
-3.97691 -1.23779 -3.1084 425
-3.98651 -1.24077 -3.09568 418
-3.99607 -1.24375 -3.08292 410
-4.0056 -1.24671 -3.07013 403
-4.01508 -1.24967 -3.05731 391
-4.02453 -1.2526 -3.04446 382
-4.05798 -1.26302 -3.05078 404
-4.0674 -1.26595 -3.03779 457
-4.07679 -1.26887 -3.02476 526
-4.09825 -1.27555 -3.02119 566
-4.10758 -1.27846 -3.00806 591
-4.11688 -1.28135 -2.99491 617
-4.13833 -1.28803 -2.99108 625
-4.14758 -1.2909 -2.97782 668
-4.14453 -1.28996 -2.95526 672
-4.16595 -1.29662 -2.95122 546
-4.42119 -1.37606 -3.12182 532
-4.43083 -1.37906 -3.10763 592
-4.45278 -1.3859 -3.10252 614
-4.51192 -1.4043 -3.12452 664
-4.53398 -1.41117 -3.11907 784
-4.54361 -1.41417 -3.1045 879
-4.55319 -1.41715 -3.08991 840
-4.56273 -1.42012 -3.07528 778
-4.57223 -1.42307 -3.06062 753
-4.58168 -1.42602 -3.04593 737
-4.59109 -1.42894 -3.03121 685
-4.7895 -1.4907 -3.14764 669
-4.79921 -1.49372 -3.13223 748
-4.80888 -1.49673 -3.11679 813
-4.85654 -1.51156 -3.12718 858
-4.86619 -1.51457 -3.11155 993
-4.86307 -1.51359 -3.08735 980
-4.88536 -1.52053 -3.0802 824
-4.89487 -1.52349 -3.06448 656
-5.09647 -1.58624 -3.17486 808
-5.10626 -1.58929 -3.15844 1090
-5.11601 -1.59232 -3.14199 1118
-5.1257 -1.59534 -3.12551 974
-5.13535 -1.59834 -3.10899 803
-5.30015 -1.64964 -3.19081 776
-5.30999 -1.6527 -3.17371 814
-5.31978 -1.65574 -3.15659 756
-5.48561 -1.70736 -3.23626 875
-5.48256 -1.70641 -3.21052 925
-5.51857 -1.71762 -3.20879 928
-5.52846 -1.7207 -3.19098 877
-5.5252 -1.71968 -3.16524 715
-5.6006 -1.74315 -3.18667 572
-5.74194 -1.78714 -3.24668 628
-5.75194 -1.79025 -3.22813 731
-5.7619 -1.79335 -3.20954 771
-5.79823 -1.80466 -3.20629 763
-5.82136 -1.81186 -3.19518 772
-5.87101 -1.82731 -3.19915 816
-5.88088 -1.83038 -3.18017 769
-5.93062 -1.84586 -3.18367 650
-5.99378 -1.86552 -3.19434 704
-6.00362 -1.86859 -3.17495 780
-6.01341 -1.87163 -3.15554 726
-6.25097 -1.94557 -3.26066 765
-6.26102 -1.9487 -3.24043 1117
-6.28445 -1.95599 -3.22741 1287
-6.30786 -1.96328 -3.21426 1264
-6.31777 -1.96636 -3.19384 1099
-6.32761 -1.96942 -3.17339 900
-6.3374 -1.97247 -3.1529 718
-6.33356 -1.97128 -3.12537 646
-6.3432 -1.97428 -3.10487 738
-6.35278 -1.97726 -3.08433 935
-6.37591 -1.98446 -3.07065 1089
-6.37175 -1.98316 -3.04317 1049
-6.53136 -2.03284 -3.09725 1197
-6.54092 -2.03581 -3.07609 1172
-6.35864 -1.97908 -2.96108 1094
-6.38151 -1.9862 -2.94715 1065
-6.40435 -1.99331 -2.9331 1131
-6.41341 -1.99613 -2.91237 1171
-6.47751 -2.01608 -2.91768 1333
-6.48652 -2.01888 -2.8967 1595
-6.49547 -2.02167 -2.8757 1617
-6.50436 -2.02444 -2.85466 1268
-7.03964 -2.19104 -3.07442 1074
-7.04912 -2.19399 -3.05159 1095
-7.14189 -2.22286 -3.0662 972
-7.16525 -2.23013 -3.04923 947
-7.21645 -2.24607 -3.04445 990
-7.28163 -2.26636 -3.04546 1130
-7.29102 -2.26928 -3.02183 1289
-7.30034 -2.27218 -2.99817 1185
-7.29559 -2.2707 -2.9685 1027
-7.44496 -2.31719 -3.00406 1050
-7.46826 -2.32444 -2.98577 1232
-7.47748 -2.32731 -2.96152 1342
-7.48662 -2.33016 -2.93724 1231
-7.49568 -2.33298 -2.91293 1008
-7.58932 -2.36212 -2.92274 728
-7.62659 -2.37372 -2.90938 782
-7.63558 -2.37652 -2.88461 964
-7.65864 -2.3837 -2.86537 1067
-7.71002 -2.39969 -2.857 1157
-7.73303 -2.40685 -2.83742 981
-7.75601 -2.414 -2.81771 650
-7.76471 -2.41671 -2.79251 529
-7.8303 -2.43713 -2.78855 550
-7.86743 -2.44868 -2.77365 667
-7.87601 -2.45135 -2.74809 670
-7.97023 -2.48068 -2.75355 523
-7.97874 -2.48333 -2.72765 489
-7.98717 -2.48595 -2.70172 277
-8.13886 -2.53316 -2.7261 252
-8.16164 -2.54025 -2.70463 324
-8.15564 -2.53838 -2.67315 357
-8.17829 -2.54543 -2.65153 359
-8.22967 -2.56143 -2.63947 440
-8.28106 -2.57742 -2.6271 624
-8.30361 -2.58444 -2.60492 554
-8.31167 -2.58695 -2.57792 426
-8.40636 -2.61642 -2.57882 330
-8.4288 -2.6234 -2.55608 311
-8.46567 -2.63488 -2.53778 292
-8.48803 -2.64184 -2.51475 285
-8.51032 -2.64878 -2.49161 251
-8.67774 -2.70089 -2.51249 351
-8.70006 -2.70783 -2.48862 365
-8.70777 -2.71023 -2.46031 263
-9.47633 -2.94944 -2.45656 335
-9.48394 -2.95181 -2.42569 445
-9.50611 -2.95871 -2.39867 850
-9.51355 -2.96102 -2.3677 1196
-9.52089 -2.96331 -2.33671 1187
-9.52814 -2.96557 -2.30569 1231
-9.52059 -2.96322 -2.27095 1059
-9.45408 -2.94252 -2.22172 1056
-9.46099 -2.94467 -2.19092 1679
-9.45307 -2.9422 -2.15655 1726
-9.41554 -2.93052 -2.11527 1676
-9.39261 -2.92338 -2.0777 1206
-9.34002 -2.90702 -2.0335 1387
-9.31681 -2.89979 -1.99638 2218
-9.30825 -2.89713 -1.96273 2468
-9.31438 -2.89903 -1.93242 2287
-9.32041 -2.90091 -1.90208 2362
-9.29673 -2.89354 -1.86541 2343
-9.24326 -2.8769 -1.82271 2418
-9.23413 -2.87406 -1.78955 3294
-9.23974 -2.8758 -1.75948 3568
-9.2304 -2.8729 -1.72643 3791
-9.17637 -2.85608 -1.68473 3489
-9.15193 -2.84847 -1.64912 4148
-9.17199 -2.85472 -1.62214 4615
-9.1622 -2.85167 -1.58951 4067
-9.13742 -2.84396 -1.55425 3082
-9.0827 -2.82693 -1.51384 2659
-9.05766 -2.81913 -1.47903 2572
-9.00266 -2.80201 -1.43928 2857
-9.02214 -2.80808 -1.41249 3074
-9.02661 -2.80947 -1.38312 3239
-9.00111 -2.80153 -1.3489 3402
-9.00539 -2.80286 -1.3196 3427
-8.97967 -2.79486 -1.28565 3593
-8.9688 -2.79148 -1.25415 3306
-8.95783 -2.78806 -1.22274 3020
-8.9168 -2.77529 -1.18706 2898
-8.9206 -2.77647 -1.15804 2671
-8.8044 -2.74031 -1.11242 2074
-8.80797 -2.74142 -1.08377 1936
-8.81145 -2.7425 -1.05511 1691
-8.82985 -2.74823 -1.02837 1570
-8.84818 -2.75393 -1.00151 1443
-8.85142 -2.75494 -0.972718 1194
-8.88461 -2.76527 -0.947467 950
-8.90271 -2.77091 -0.92028 784
-8.9057 -2.77184 -0.891308 674
-9.01387 -2.8055 -0.873717 712
-9.03176 -2.81107 -0.845956 886
-9.03453 -2.81193 -0.816558 841
-9.06731 -2.82214 -0.790108 737
-9.32587 -2.90261 -0.784881 819
-9.32845 -2.90341 -0.754512 857
-9.40626 -2.92763 -0.730782 817
-9.42375 -2.93307 -0.701428 942
-9.42608 -2.9338 -0.670737 956
-9.42831 -2.9345 -0.640038 841
-9.49078 -2.95394 -0.613854 671
-9.49284 -2.95458 -0.582942 524
-9.64567 -3.00215 -0.56233 477
-9.64758 -3.00274 -0.530908 477
-10.2983 -3.20529 -0.539516 448
-10.3002 -3.20586 -0.505939 736
-10.6944 -3.32857 -0.493974 902
-10.681 -3.3244 -0.458309 1124
-10.6524 -3.3155 -0.422005 1389
-10.6539 -3.31596 -0.38726 1301
-10.6402 -3.31168 -0.351878 1194
-10.6264 -3.30738 -0.316592 1388
-10.6275 -3.30774 -0.281933 1734
-10.6286 -3.30807 -0.247271 1965
-10.6144 -3.30366 -0.212173 2174
-10.6153 -3.30393 -0.177554 2047
-10.6765 -3.32298 -0.144264 1819
-10.6771 -3.32318 -0.109441 1805
-10.6928 -3.32805 -0.0748492 1774
-10.6932 -3.32819 -0.0399726 2055
-10.6633 -3.31888 -0.00482823 2483
-10.6636 -3.31895 0.0299508 2872
-10.6486 -3.31429 0.0647638 2955
-10.6032 -3.30018 0.0994444 2875
-10.588 -3.29544 0.133958 2701
-10.5878 -3.29538 0.168488 2546
-10.5875 -3.29529 0.203017 2213
-10.5871 -3.29517 0.237545 2169
-10.5715 -3.29031 0.271805 2241
-10.5709 -3.29012 0.306279 2692
-10.5702 -3.2899 0.340752 3134
-10.5543 -3.28494 0.374806 3001
-10.508 -3.27055 0.407827 2944
-10.507 -3.27023 0.442091 2555
-10.4304 -3.24637 0.473526 2623
-10.4291 -3.246 0.507534 2879
-10.4127 -3.24089 0.540872 2861
-10.4113 -3.24045 0.574821 2976
-10.3947 -3.23528 0.608001 2956
-10.378 -3.23007 0.641076 2994
-10.3612 -3.22484 0.674045 2958
-10.3594 -3.22428 0.707824 2839
-10.3424 -3.21898 0.740632 2648
-10.3403 -3.21836 0.774348 2548
-10.3081 -3.20831 0.80593 2226
-10.3058 -3.20762 0.839532 2051
-10.2734 -3.19752 0.870801 2002
-10.2408 -3.18738 0.901863 1853
-10.2383 -3.18661 0.935243 1852
-10.2357 -3.1858 0.968615 2070
-10.2481 -3.18964 1.00334 2123
-10.2302 -3.18408 1.03533 1716
-10.2273 -3.18318 1.06868 1452
-10.2243 -3.18225 1.10201 1192
-10.131 -3.15319 1.12597 964
-10.1127 -3.14752 1.15738 1062
-10.1245 -3.15118 1.19199 1154
-10.1211 -3.15013 1.22499 1169
-10.1177 -3.14905 1.25797 1126
-10.069 -3.13392 1.28551 1278
-3.96895 -1.22938 -3.1211 318
-3.97859 -1.23237 -3.1084 360
-3.9882 -1.23535 -3.09568 362
-3.99776 -1.23831 -3.08292 361
-4.00729 -1.24126 -3.07013 358
-4.01678 -1.2442 -3.05731 336
-4.03823 -1.25084 -3.0541 319
-4.05969 -1.25749 -3.05078 332
-4.06912 -1.26041 -3.03779 371
-4.07851 -1.26332 -3.02476 437
-4.09998 -1.26997 -3.02119 464
-4.12146 -1.27662 -3.0175 544
-4.11862 -1.27574 -2.99491 669
-4.14008 -1.28239 -2.99108 713
-4.14933 -1.28526 -2.97782 837
-4.14629 -1.28431 -2.95526 894
-4.15543 -1.28714 -2.94198 755
-4.13991 -1.28234 -2.91028 790
-4.4327 -1.37303 -3.10763 748
-4.45467 -1.37983 -3.10252 781
-4.47664 -1.38664 -3.0973 851
-4.52347 -1.40115 -3.11003 926
-4.53308 -1.40412 -3.09551 1010
-4.55512 -1.41095 -3.08991 936
-4.56466 -1.41391 -3.07528 812
-4.57416 -1.41685 -3.06062 740
-4.58362 -1.41978 -3.04593 675
-4.60561 -1.42659 -3.04 622
-4.79152 -1.48418 -3.14764 629
-4.80124 -1.48719 -3.13223 745
-4.81091 -1.49018 -3.11679 841
-4.83322 -1.49709 -3.10994 856
-4.85554 -1.504 -3.10297 956
-4.86512 -1.50697 -3.08735 934
-4.88742 -1.51388 -3.0802 763
-4.89694 -1.51683 -3.06448 611
-5.09862 -1.5793 -3.17486 775
-5.12126 -1.58631 -3.16681 1066
-5.13103 -1.58934 -3.15032 1102
-5.12787 -1.58836 -3.12551 954
-5.17626 -1.60335 -3.13371 807
-5.30239 -1.64242 -3.19081 756
-5.31224 -1.64547 -3.17371 778
-5.33502 -1.65252 -3.1647 736
-5.48793 -1.69989 -3.23626 828
-5.49791 -1.70298 -3.21855 878
-5.5209 -1.7101 -3.20879 876
-5.5308 -1.71317 -3.19098 824
-5.52754 -1.71216 -3.16524 682
-5.60297 -1.73552 -3.18667 556
-5.74437 -1.77932 -3.24668 627
-5.75438 -1.78242 -3.22813 736
-5.79074 -1.79368 -3.22499 787
-5.80068 -1.79676 -3.20629 771
-5.82382 -1.80393 -3.19518 760
-5.8735 -1.81932 -3.19915 818
-5.88336 -1.82237 -3.18017 777
-5.93313 -1.83779 -3.18367 655
-6.00965 -1.86149 -3.2018 703
-6.00616 -1.86041 -3.17495 752
-6.02934 -1.86759 -3.16291 716
-6.25361 -1.93706 -3.26066 711
-6.26366 -1.94017 -3.24043 1027
-6.2871 -1.94743 -3.22741 1187
-6.31053 -1.95469 -3.21426 1191
-6.32044 -1.95776 -3.19384 1075
-6.33029 -1.96081 -3.17339 922
-6.34008 -1.96384 -3.1529 729
-6.33624 -1.96265 -3.12537 605
-6.34589 -1.96564 -3.10487 690
-6.36907 -1.97282 -3.09126 880
-6.37861 -1.97578 -3.07065 1007
-6.37444 -1.97449 -3.04317 952
-6.54779 -2.02818 -3.10404 1173
-6.54368 -2.02691 -3.07609 1143
-6.36133 -1.97042 -2.96108 922
-6.3842 -1.97751 -2.94715 923
-6.40705 -1.98459 -2.9331 1063
-6.42988 -1.99166 -2.91893 1169
-6.48025 -2.00726 -2.91768 1363
-6.48927 -2.01005 -2.8967 1600
-6.49822 -2.01283 -2.8757 1620
-6.50711 -2.01558 -2.85466 1298
-6.54366 -2.0269 -2.84627 1000
-7.0521 -2.18439 -3.05159 983
-7.1588 -2.21744 -3.07245 902
-7.21003 -2.23331 -3.06783 931
-7.2195 -2.23624 -3.04445 1007
-7.28471 -2.25644 -3.04546 1128
-7.2941 -2.25935 -3.02183 1282
-7.30343 -2.26224 -2.99817 1173
-7.29868 -2.26077 -2.9685 992
-7.4481 -2.30705 -3.00406 1021
-7.47142 -2.31427 -2.98577 1227
-7.48064 -2.31713 -2.96152 1297
-7.48978 -2.31996 -2.93724 1154
-7.49885 -2.32277 -2.91293 958
-7.59253 -2.35179 -2.92274 713
-7.62982 -2.36334 -2.90938 786
-7.65295 -2.3705 -2.89021 979
-7.66188 -2.37327 -2.86537 1042
-7.71328 -2.38919 -2.857 1102
-7.7363 -2.39632 -2.83742 948
-7.75929 -2.40344 -2.81771 642
-7.78223 -2.41055 -2.79787 517
-7.84786 -2.43088 -2.79387 553
-7.87076 -2.43797 -2.77365 620
-7.87934 -2.44063 -2.74809 597
-7.9593 -2.4654 -2.74837 477
-7.98211 -2.47246 -2.72765 442
-8.00487 -2.47951 -2.7068 252
-8.16509 -2.52914 -2.70463 294
-8.15909 -2.52728 -2.67315 377
-8.16736 -2.52984 -2.64664 397
-8.23315 -2.55022 -2.63947 406
-8.28456 -2.56614 -2.6271 574
-8.30712 -2.57313 -2.60492 533
-8.31519 -2.57563 -2.57792 395
-8.40991 -2.60497 -2.57882 286
-8.43237 -2.61193 -2.55608 287
-8.46925 -2.62335 -2.53778 270
-8.50611 -2.63477 -2.51927 265
-8.68141 -2.68907 -2.51249 329
-8.70374 -2.69598 -2.48862 354
-8.71145 -2.69837 -2.46031 253
-9.48033 -2.93654 -2.45656 323
-9.48795 -2.93889 -2.42569 460
-9.51013 -2.94577 -2.39867 821
-9.51757 -2.94807 -2.3677 1100
-9.52491 -2.95035 -2.33671 1086
-9.53217 -2.95259 -2.30569 1100
-9.52462 -2.95025 -2.27095 998
-9.45808 -2.92964 -2.22172 1125
-9.46499 -2.93178 -2.19092 1567
-9.45706 -2.92933 -2.15655 1614
-9.41952 -2.9177 -2.11527 1657
-9.38182 -2.90602 -2.07425 1168
-9.3292 -2.88972 -2.0301 1215
-9.30597 -2.88253 -1.99303 2096
-9.31219 -2.88445 -1.96273 2402
-9.31832 -2.88635 -1.93242 2191
-9.30954 -2.88363 -1.89887 2179
-9.28584 -2.87629 -1.86226 2156
-9.23234 -2.85972 -1.8196 2316
-9.23804 -2.86148 -1.78955 3162
-9.24364 -2.86322 -1.75948 3472
-9.2343 -2.86033 -1.72643 3655
-9.18025 -2.84359 -1.68473 3249
-9.1558 -2.83601 -1.64912 3781
-9.17586 -2.84223 -1.62214 4132
-9.16607 -2.83919 -1.58951 3628
-9.14128 -2.83151 -1.55425 2847
-9.08654 -2.81456 -1.51384 2764
-9.07641 -2.81142 -1.48165 2602
-9.02139 -2.79438 -1.44185 2829
-9.02595 -2.79579 -1.41249 3059
-9.04536 -2.8018 -1.38559 3073
-9.00492 -2.78927 -1.3489 3006
-8.99424 -2.78597 -1.31723 3057
-8.98347 -2.78263 -1.28565 3260
-8.95762 -2.77463 -1.25188 2970
-8.96161 -2.77586 -1.22274 2731
-8.92057 -2.76315 -1.18706 2786
-8.92437 -2.76433 -1.15804 2516
-8.80812 -2.72832 -1.11242 2171
-8.81169 -2.72942 -1.08377 1995
-8.83018 -2.73515 -1.05709 1724
-8.83359 -2.73621 -1.02837 1551
-8.85192 -2.74189 -1.00151 1379
-8.85516 -2.74289 -0.972718 1116
-8.88837 -2.75317 -0.947467 854
-8.90647 -2.75878 -0.92028 711
-8.90947 -2.75971 -0.891308 613
-9.01768 -2.79323 -0.873717 679
-9.03558 -2.79877 -0.845956 839
-9.08351 -2.81362 -0.821142 795
-9.0862 -2.81445 -0.791586 709
-9.32981 -2.88991 -0.784881 825
-9.33239 -2.89071 -0.754512 846
-9.42531 -2.91949 -0.732111 800
-9.42773 -2.92024 -0.701428 947
-9.43006 -2.92096 -0.670737 963
-9.4323 -2.92166 -0.640038 843
-9.43445 -2.92232 -0.609333 641
-9.49685 -2.94165 -0.582942 473
-9.64975 -2.98901 -0.56233 481
-9.65166 -2.98961 -0.530908 470
-10.2876 -3.18659 -0.538585 492
-10.2894 -3.18716 -0.505058 764
-10.2912 -3.18769 -0.471525 912
-10.6705 -3.30518 -0.457527 1059
-10.6569 -3.30099 -0.422005 1323
-10.6584 -3.30145 -0.38726 1215
-10.6447 -3.2972 -0.351878 1091
-10.6308 -3.29291 -0.316592 1262
-10.632 -3.29327 -0.281933 1602
-10.6331 -3.2936 -0.247271 1838
-10.6189 -3.28921 -0.212173 2023
-10.6198 -3.28947 -0.177554 1883
-10.6659 -3.30376 -0.143931 1598
-10.6816 -3.30864 -0.109441 1621
-10.6822 -3.30881 -0.0746161 1631
-10.6826 -3.30895 -0.0397894 1987
-10.6678 -3.30436 -0.00482823 2493
-10.6681 -3.30443 0.0299508 2850
-10.6228 -3.29042 0.0648307 2918
-10.6077 -3.28574 0.0994444 2806
-10.5925 -3.28103 0.133958 2588
-10.5923 -3.28097 0.168488 2397
-10.592 -3.28088 0.203017 2028
-10.5916 -3.28075 0.237545 1979
-10.576 -3.27591 0.271805 2053
-10.5754 -3.27573 0.306279 2535
-10.5747 -3.27551 0.340752 3053
-10.5587 -3.27057 0.374806 2961
-10.5125 -3.25624 0.407827 2859
-10.5115 -3.25593 0.442091 2448
-10.4348 -3.23217 0.473526 2505
-10.4336 -3.2318 0.507534 2683
-10.4322 -3.23139 0.541537 2599
-10.4157 -3.22627 0.574821 2662
-10.3991 -3.22112 0.608001 2634
-10.3824 -3.21594 0.641076 2660
-10.3656 -3.21073 0.674045 2665
-10.3637 -3.21017 0.707824 2603
-10.3467 -3.2049 0.740632 2463
-10.3447 -3.20428 0.774348 2404
-10.3275 -3.19895 0.806993 2054
-10.3102 -3.19359 0.839532 1857
-10.2777 -3.18353 0.870801 1787
-10.2753 -3.18278 0.904289 1633
-10.2427 -3.17266 0.935243 1597
-10.2551 -3.17653 0.969927 1786
-10.2524 -3.17569 1.00334 1844
-10.2345 -3.17015 1.03533 1472
-10.2316 -3.16926 1.06868 1248
-10.2286 -3.16833 1.10201 1041
-10.1352 -3.13939 1.12597 881
-10.117 -3.13375 1.15738 1029
-10.0837 -3.12342 1.18701 1094
-10.1254 -3.13635 1.22499 1062
-10.1069 -3.13062 1.25621 1069
-10.0883 -3.12486 1.28732 1619
-4.16501 -1.08051 -3.11193 266
-4.23569 -1.09885 -3.14677 312
-4.25776 -1.10457 -3.14294 419
-4.26759 -1.10712 -3.12948 485
-4.35104 -1.12877 -3.17286 577
-4.36097 -1.13135 -3.15909 661
-4.38319 -1.13711 -3.15469 670
-4.40542 -1.14288 -3.15018 689
-4.47723 -1.16151 -3.18284 694
-4.48719 -1.16409 -3.16866 754
-4.50955 -1.16989 -3.16369 712
-4.5444 -1.17893 -3.1678 717
-4.55431 -1.1815 -3.15341 633
-4.58923 -1.19056 -3.15721 598
-4.61167 -1.19639 -3.15175 577
-4.60894 -1.19568 -3.1281 552
-4.61873 -1.19822 -3.1135 561
-4.61584 -1.19747 -3.08991 520
-4.66351 -1.20983 -3.10201 473
-4.67322 -1.21235 -3.08723 429
-4.98823 -1.29407 -3.28429 504
-5.01124 -1.30004 -3.27724 502
-5.04704 -1.30933 -3.27881 506
-5.04448 -1.30867 -3.25408 497
-5.06748 -1.31463 -3.24672 493
-4.98764 -1.29392 -3.17028 537
-4.99755 -1.29649 -3.15444 623
-5.02033 -1.3024 -3.14711 593
-5.05604 -1.31167 -3.14815 604
-5.06589 -1.31422 -3.13209 563
-5.29644 -1.37403 -3.25896 643
-5.30663 -1.37668 -3.24212 619
-5.43409 -1.40974 -3.30016 639
-5.47052 -1.41919 -3.29944 854
-5.48083 -1.42187 -3.28202 966
-5.49108 -1.42453 -3.26458 870
-5.48815 -1.42377 -3.23895 797
-5.49827 -1.42639 -3.22148 704
-5.50834 -1.429 -3.20398 613
-5.51836 -1.4316 -3.18645 663
-5.70038 -1.47882 -3.27266 810
-5.75038 -1.4918 -3.27832 1004
-5.76063 -1.49445 -3.25999 1187
-5.78412 -1.50055 -3.24949 1229
-5.8076 -1.50664 -3.23887 1187
-5.81773 -1.50927 -3.22036 1045
-5.90807 -1.5327 -3.24816 1087
-5.93162 -1.53881 -3.237 994
-6.11627 -1.58672 -3.31735 967
-6.04593 -1.56847 -3.25229 1069
-6.02915 -1.56412 -3.21791 1087
-6.03921 -1.56672 -3.19868 896
-6.18439 -1.60439 -3.25402 991
-6.20809 -1.61054 -3.2417 1500
-6.21822 -1.61317 -3.22189 1770
-6.24187 -1.6193 -3.20937 1585
-6.29272 -1.63249 -3.2113 965
-6.42543 -1.66692 -3.25636 1107
-6.4356 -1.66956 -3.23584 1133
-6.45939 -1.67573 -3.22244 1029
-6.51054 -1.689 -3.22313 1062
-6.52061 -1.69161 -3.20233 1131
-6.53062 -1.69421 -3.1815 942
-6.65064 -1.72535 -3.21641 769
-6.66069 -1.72795 -3.19516 725
-6.7949 -1.76277 -3.23581 724
-6.81883 -1.76898 -3.22092 806
-6.84273 -1.77518 -3.20591 742
-6.85275 -1.77778 -3.18404 622
-6.84881 -1.77676 -3.15542 618
-6.84477 -1.77571 -3.12687 659
-6.97988 -1.81076 -3.16448 891
-7.00371 -1.81694 -3.14872 1088
-7.04148 -1.82674 -3.13936 964
-7.12122 -1.84743 -3.14921 996
-7.15908 -1.85725 -3.13928 1286
-7.21096 -1.87071 -3.13553 1427
-7.22076 -1.87325 -3.11245 1214
-7.25862 -1.88307 -3.10193 987
-7.33873 -1.90385 -3.10992 1034
-6.91128 -1.79296 -2.89423 1193
-6.92035 -1.79532 -2.87213 1371
-6.92934 -1.79765 -2.85 1090
-6.93827 -1.79997 -2.82784 895
-6.97549 -1.80962 -2.81769 987
-7.0269 -1.82296 -2.81329 1063
-7.04993 -1.82893 -2.79673 1169
-7.0587 -1.83121 -2.77418 1167
-7.08164 -1.83716 -2.75744 1122
-7.11882 -1.8468 -2.74635 990
-7.71308 -2.00097 -2.95884 815
-7.17888 -1.86239 -2.71785 802
-7.80312 -2.02433 -2.93761 784
-7.81231 -2.02671 -2.91261 910
-7.82142 -2.02908 -2.88757 992
-7.83046 -2.03142 -2.86251 826
-7.89697 -2.04868 -2.85925 493
-7.94913 -2.06221 -2.85017 639
-7.92922 -2.05704 -2.81397 725
-7.93803 -2.05933 -2.78855 562
-8.07684 -2.09534 -2.81054 454
-8.07117 -2.09387 -2.77943 594
-8.10885 -2.10364 -2.7639 630
-8.14651 -2.11341 -2.74816 595
-8.19867 -2.12694 -2.73729 732
-8.20725 -2.12917 -2.711 904
-8.23029 -2.13515 -2.68966 1061
-8.23872 -2.13734 -2.66327 1344
-8.2325 -2.13572 -2.63196 1587
-8.24076 -2.13786 -2.60556 1636
-8.24893 -2.13998 -2.57913 1412
-8.27165 -2.14588 -2.55743 1086
-8.36749 -2.17074 -2.55911 1177
-8.39017 -2.17663 -2.53693 1070
-8.39814 -2.17869 -2.51002 963
-8.40602 -2.18074 -2.48308 839
-8.41382 -2.18276 -2.45611 524
-8.78916 -2.28013 -2.5407 317
-8.79713 -2.2822 -2.51249 430
-8.80502 -2.28425 -2.48425 412
-8.81283 -2.28627 -2.45599 287
-9.4655 -2.45559 -2.45113 253
-9.54737 -2.47683 -2.44063 365
-9.55504 -2.47882 -2.40995 483
-9.56261 -2.48079 -2.37925 802
-9.57009 -2.48273 -2.34852 1033
-9.59236 -2.4885 -2.32155 1022
-9.56988 -2.48267 -2.28325 1224
-9.56216 -2.48067 -2.2488 1355
-9.50958 -2.46703 -2.2035 1055
-9.45682 -2.45334 -2.15857 1353
-9.46363 -2.45511 -2.12818 1411
-9.47034 -2.45685 -2.09778 1031
-9.43209 -2.44693 -2.05701 1001
-9.39368 -2.43696 -2.0165 1907
-9.40006 -2.43862 -1.98633 2209
-9.37636 -2.43247 -1.94952 1716
-9.36753 -2.43018 -1.91615 1425
-9.32858 -2.42007 -1.87644 1344
-9.33452 -2.42161 -1.84648 1193
-9.34038 -2.42313 -1.81649 1417
-9.30103 -2.41293 -1.77732 1929
-9.30667 -2.41439 -1.74744 2112
-9.31223 -2.41583 -1.71755 2226
-9.25743 -2.40161 -1.67599 2571
-9.09696 -2.35998 -1.61478 2608
-9.13227 -2.36915 -1.5912 2889
-9.13735 -2.37046 -1.56187 3078
-9.14234 -2.37176 -1.53253 3340
-9.11702 -2.36519 -1.49784 3984
-9.1067 -2.36251 -1.46595 4328
-9.1114 -2.36373 -1.43671 4560
-9.116 -2.36492 -1.40746 4326
-9.07511 -2.35431 -1.37078 4277
-9.06436 -2.35153 -1.33923 4415
-9.03837 -2.34478 -1.30538 3828
-8.95161 -2.32228 -1.26244 3431
-8.97085 -2.32727 -1.23598 3207
-8.95967 -2.32437 -1.20496 2559
-8.94839 -2.32144 -1.17403 2254
-8.96739 -2.32637 -1.14743 2063
-8.98631 -2.33128 -1.12072 1701
-9.00515 -2.33617 -1.09389 1191
-9.05433 -2.34893 -1.07091 841
-9.08825 -2.35772 -1.04569 813
-9.10688 -2.36256 -1.01839 778
-9.18633 -2.38317 -0.998278 856
-9.20483 -2.38797 -0.970557 950
-9.20801 -2.38879 -0.941 934
-9.37874 -2.43309 -0.929879 979
-9.45803 -2.45365 -0.907892 1204
-9.46102 -2.45443 -0.87751 1214
-9.47917 -2.45914 -0.848647 1343
-9.46672 -2.45591 -0.816719 1398
-9.46944 -2.45661 -0.786309 1291
-9.48733 -2.46126 -0.75727 1002
-9.58149 -2.48568 -0.73477 846
-9.66033 -2.50614 -0.710385 1084
-9.66272 -2.50676 -0.679346 1155
-9.66501 -2.50735 -0.648299 971
-9.75893 -2.53172 -0.624026 774
-9.77635 -2.53624 -0.593747 959
-9.77838 -2.53676 -0.56233 933
-9.96388 -2.58488 -0.542679 935
-9.98105 -2.58934 -0.511583 1004
-9.98283 -2.5898 -0.479501 959
-9.98451 -2.59024 -0.447412 921
-9.9861 -2.59065 -0.415319 1015
-9.98759 -2.59104 -0.383221 929
-10.0043 -2.59537 -0.351799 729
-10.8631 -2.81818 -0.355039 822
-10.8644 -2.81852 -0.320085 1203
-10.8503 -2.81485 -0.284595 1552
-10.7748 -2.79526 -0.247271 1565
-10.8064 -2.80346 -0.213471 1735
-10.8073 -2.80369 -0.178702 1741
-10.8387 -2.81184 -0.144597 1681
-10.8394 -2.81201 -0.109724 2052
-10.8246 -2.80817 -0.0746161 2309
-10.825 -2.80829 -0.0397894 2615
-10.81 -2.8044 -0.00482823 2920
-10.7796 -2.79651 0.0301175 2963
-10.7797 -2.79654 0.0647972 2742
-10.7491 -2.78859 0.0994444 2678
-10.7337 -2.78459 0.133958 3046
-10.7182 -2.78057 0.168372 3250
-10.7025 -2.77651 0.202684 3419
-10.6868 -2.77243 0.236896 2926
-10.6557 -2.76435 0.270741 2560
-10.6244 -2.75624 0.304385 3203
-10.6084 -2.75208 0.338192 3831
-10.6229 -2.75585 0.372728 3956
-10.622 -2.75561 0.406896 3806
-10.6209 -2.75534 0.441061 3263
-10.5585 -2.73916 0.472961 2812
-10.542 -2.73486 0.506304 2616
-10.5407 -2.73452 0.540207 2541
-10.5392 -2.73415 0.574107 2567
-10.5224 -2.72978 0.607236 2230
-10.4902 -2.72141 0.639447 1941
-10.4731 -2.71699 0.672317 2094
-10.456 -2.71255 0.705082 2296
-10.4235 -2.70411 0.736776 2706
-10.4214 -2.70358 0.770293 3040
-10.404 -2.69906 0.802739 3207
-10.3865 -2.69452 0.835079 3709
-10.3842 -2.69391 0.868475 3294
-10.3512 -2.68535 0.899437 2561
-10.3334 -2.68074 0.931455 2327
-10.3307 -2.68006 0.964678 1886
-10.2975 -2.67143 0.995167 1524
-10.2947 -2.6707 1.02827 1283
-10.2612 -2.66202 1.05845 988
-10.365 -2.68894 1.10201 883
-10.3771 -2.69208 1.13689 806
-10.3738 -2.69124 1.17026 711
-10.3705 -2.69037 1.20361 610
-10.3518 -2.68552 1.23524 598
-10.3483 -2.6846 1.26852 653
-10.3903 -2.6955 1.30722 1081
-4.06882 -1.05078 -3.13791 262
-4.1662 -1.07593 -3.11193 272
-4.20032 -1.08474 -3.11797 309
-4.24675 -1.09673 -3.13338 388
-4.26881 -1.10243 -3.12948 434
-4.29089 -1.10813 -3.12546 503
-4.36221 -1.12655 -3.15909 558
-4.3721 -1.1291 -3.1453 552
-4.45614 -1.15081 -3.18762 572
-4.4785 -1.15658 -3.18284 634
-4.48846 -1.15916 -3.16866 691
-4.51083 -1.16493 -3.16369 668
-4.54569 -1.17393 -3.1678 675
-4.56811 -1.17972 -3.16256 595
-4.59054 -1.18552 -3.15721 563
-4.61298 -1.19131 -3.15175 534
-4.61026 -1.19061 -3.1281 506
-4.60743 -1.18988 -3.1045 515
-4.60451 -1.18912 -3.08096 485
-4.6395 -1.19816 -3.08419 444
-4.75075 -1.22689 -3.14045 413
-4.98965 -1.28859 -3.28429 487
-5.01267 -1.29453 -3.27724 491
-5.04847 -1.30378 -3.27881 501
-5.04592 -1.30312 -3.25408 502
-5.06892 -1.30906 -3.24672 502
-4.98906 -1.28844 -3.17028 533
-4.99898 -1.291 -3.15444 602
-5.02176 -1.29688 -3.14711 571
-5.05748 -1.30611 -3.14815 574
-5.28771 -1.36556 -3.27577 537
-5.29795 -1.36821 -3.25896 605
-5.30814 -1.37084 -3.24212 574
-5.43564 -1.40377 -3.30016 633
-5.47208 -1.41318 -3.29944 839
-5.48239 -1.41584 -3.28202 941
-5.49265 -1.41849 -3.26458 848
-5.48971 -1.41773 -3.23895 778
-5.49984 -1.42035 -3.22148 693
-5.50991 -1.42295 -3.20398 612
-5.51993 -1.42553 -3.18645 657
-5.702 -1.47256 -3.27266 808
-5.73876 -1.48205 -3.27038 1012
-5.76227 -1.48812 -3.25999 1186
-5.78577 -1.49419 -3.24949 1207
-5.80926 -1.50025 -3.23887 1136
-5.81938 -1.50287 -3.22036 969
-5.90975 -1.52621 -3.24816 997
-5.93331 -1.53229 -3.237 917
-6.11801 -1.57999 -3.31735 959
-6.04766 -1.56182 -3.25229 1041
-6.04434 -1.56097 -3.22546 1033
-6.04092 -1.56008 -3.19868 839
-6.19967 -1.60108 -3.26148 961
-6.20986 -1.60371 -3.2417 1427
-6.21999 -1.60633 -3.22189 1672
-6.25724 -1.61595 -3.2167 1516
-6.29452 -1.62557 -3.2113 940
-6.42726 -1.65986 -3.25636 1116
-6.45109 -1.66601 -3.24304 1151
-6.46122 -1.66863 -3.22244 1061
-6.5124 -1.68184 -3.22313 1072
-6.52247 -1.68444 -3.20233 1134
-6.53248 -1.68703 -3.1815 919
-6.65254 -1.71803 -3.21641 724
-6.66259 -1.72063 -3.19516 645
-6.79683 -1.7553 -3.23581 683
-6.8346 -1.76505 -3.22776 763
-6.84468 -1.76765 -3.20591 695
-6.8547 -1.77024 -3.18404 586
-6.85076 -1.76922 -3.15542 587
-6.86062 -1.77177 -3.13353 633
-6.98186 -1.80308 -3.16448 823
-7.0057 -1.80924 -3.14872 1031
-7.04349 -1.819 -3.13936 910
-7.12325 -1.8396 -3.14921 923
-7.16111 -1.84937 -3.13928 1212
-7.19899 -1.85915 -3.12914 1325
-7.22282 -1.86531 -3.11245 1115
-7.31695 -1.88962 -3.12709 940
-7.34082 -1.89578 -3.10992 1032
-6.92736 -1.78901 -2.90043 983
-6.93644 -1.79135 -2.87828 1107
-6.9596 -1.79733 -2.86222 907
-6.96857 -1.79965 -2.83996 782
-7.48798 -1.93379 -3.03426 889
-7.0857 -1.8299 -2.83717 983
-7.05194 -1.82118 -2.79673 1064
-7.07494 -1.82712 -2.78006 1077
-7.11216 -1.83673 -2.7691 1035
-7.12085 -1.83898 -2.74635 929
-7.15804 -1.84858 -2.73505 727
-7.18092 -1.85449 -2.71785 851
-7.20377 -1.86039 -2.70052 790
-7.81453 -2.01812 -2.91261 865
-7.82365 -2.02048 -2.88757 948
-7.83269 -2.02281 -2.86251 775
-7.928 -2.04743 -2.87017 493
-7.9514 -2.05347 -2.85017 595
-7.96032 -2.05577 -2.8247 639
-7.98361 -2.06179 -2.80451 492
-8.07914 -2.08646 -2.81054 470
-8.08794 -2.08873 -2.78465 575
-8.11116 -2.09473 -2.7639 593
-8.14883 -2.10445 -2.74816 558
-8.201 -2.11793 -2.73729 727
-8.20958 -2.12014 -2.711 885
-8.23263 -2.1261 -2.68966 997
-8.24107 -2.12828 -2.66327 1231
-8.23485 -2.12667 -2.63196 1483
-8.2431 -2.1288 -2.60556 1555
-8.25128 -2.13091 -2.57913 1395
-8.274 -2.13678 -2.55743 1048
-8.36987 -2.16154 -2.55911 1039
-8.39256 -2.1674 -2.53693 946
-8.40053 -2.16946 -2.51002 854
-8.40841 -2.17149 -2.48308 736
-8.41622 -2.17351 -2.45611 440
-8.79166 -2.27047 -2.5407 314
-8.79964 -2.27253 -2.51249 388
-8.80753 -2.27457 -2.48425 368
-8.81534 -2.27658 -2.45599 280
-9.5946 -2.47783 -2.45258 378
-9.55776 -2.46831 -2.40995 517
-9.56533 -2.47027 -2.37925 857
-9.57281 -2.4722 -2.34852 1084
-9.59509 -2.47795 -2.32155 978
-9.5726 -2.47215 -2.28325 1128
-9.56488 -2.47015 -2.2488 1258
-9.51229 -2.45657 -2.2035 1066
-9.45952 -2.44294 -2.15857 1355
-9.46632 -2.4447 -2.12818 1387
-9.45809 -2.44257 -2.09428 1008
-9.38989 -2.42496 -2.04666 973
-9.39636 -2.42663 -2.0165 1913
-9.38775 -2.42441 -1.98297 2253
-9.37903 -2.42216 -1.94952 1888
-9.3702 -2.41988 -1.91615 1667
-9.33123 -2.40981 -1.87644 1679
-9.32215 -2.40747 -1.84332 1461
-9.34304 -2.41286 -1.81649 1415
-9.28863 -2.39881 -1.77426 1803
-9.30932 -2.40415 -1.74744 1944
-9.29982 -2.4017 -1.71459 2068
-9.26007 -2.39143 -1.67599 2575
-9.09955 -2.34998 -1.61478 2595
-9.13487 -2.3591 -1.5912 2890
-9.13995 -2.36041 -1.56187 3128
-9.14494 -2.3617 -1.53253 3336
-9.11962 -2.35516 -1.49784 3828
-9.10929 -2.3525 -1.46595 4113
-9.11399 -2.35371 -1.43671 4331
-9.1186 -2.3549 -1.40746 4105
-9.07769 -2.34433 -1.37078 4087
-9.06695 -2.34156 -1.33923 4267
-9.04094 -2.33484 -1.30538 3694
-9.04515 -2.33593 -1.27637 3222
-8.97341 -2.3174 -1.23598 3000
-8.96223 -2.31452 -1.20496 2391
-8.96613 -2.31552 -1.1762 2121
-8.96994 -2.31651 -1.14743 1906
-8.98886 -2.3214 -1.12072 1511
-8.99251 -2.32234 -1.09187 1047
-9.10254 -2.35075 -1.07683 770
-9.10605 -2.35166 -1.04762 709
-9.17036 -2.36827 -1.02589 699
-9.20417 -2.377 -1.0001 794
-9.20745 -2.37784 -0.970557 868
-9.22587 -2.3826 -0.942726 828
-9.45763 -2.44246 -0.938264 957
-9.46072 -2.44325 -0.907892 1193
-9.46371 -2.44403 -0.87751 1166
-9.48187 -2.44872 -0.848647 1274
-9.48468 -2.44944 -0.818197 1318
-9.47213 -2.4462 -0.786309 1218
-9.49003 -2.45082 -0.75727 974
-9.56894 -2.4712 -0.733441 844
-9.66308 -2.49551 -0.710385 1039
-9.66547 -2.49613 -0.679346 1090
-9.66777 -2.49672 -0.648299 903
-9.777 -2.52493 -0.625157 743
-9.79443 -2.52943 -0.594827 940
-9.79646 -2.52996 -0.563361 922
-9.96671 -2.57393 -0.542679 910
-9.98389 -2.57836 -0.511583 972
-9.98567 -2.57882 -0.479501 911
-10.0027 -2.58321 -0.448244 870
-9.98894 -2.57967 -0.415319 944
-9.99043 -2.58005 -0.383221 849
-10.7576 -2.77818 -0.385214 670
-10.8662 -2.80623 -0.355039 754
-10.8675 -2.80657 -0.320085 1136
-10.8534 -2.80292 -0.284595 1552
-10.8085 -2.79133 -0.248236 1599
-10.8095 -2.79158 -0.213471 1773
-10.8104 -2.7918 -0.178702 1768
-10.8265 -2.79596 -0.144264 1687
-10.8424 -2.80008 -0.109724 1994
-10.8277 -2.79627 -0.0746161 2233
-10.8281 -2.79638 -0.0397894 2526
-10.7978 -2.78855 -0.00469497 2794
-10.7827 -2.78465 0.0301175 2811
-10.7828 -2.78468 0.0647972 2572
-10.7522 -2.77677 0.0994444 2506
-10.7367 -2.77279 0.133958 2885
-10.7212 -2.76878 0.168372 3098
-10.7209 -2.7687 0.20285 3270
-10.6899 -2.76068 0.236896 2753
-10.674 -2.75659 0.271007 2388
-10.6274 -2.74456 0.304385 3017
