-4.64676 -6.44106 -4.30488 507
-4.65484 -6.45226 -4.28024 461
-4.85733 -6.73293 -4.43978 460
-5.05233 -7.00323 -4.58955 462
-5.01215 -6.94753 -4.5172 507
-5.13464 -7.11732 -4.59622 558
-5.11878 -7.09534 -4.54645 601
-5.1273 -7.10715 -4.51927 625
-5.20944 -7.22101 -4.55875 763
-5.22618 -7.24422 -4.53845 853
-5.25933 -7.29016 -4.53267 719
-5.30073 -7.34755 -4.53385 706
-5.30923 -7.35933 -4.50569 733
-5.30942 -7.3596 -4.47029 647
-5.45006 -7.55454 -4.55643 760
-5.46688 -7.57785 -4.53457 699
-5.5583 -7.70458 -4.57609 588
-5.57518 -7.72798 -4.55355 732
-5.59203 -7.75133 -4.53088 662
-5.61719 -7.7862 -4.515 517
-5.63399 -7.80949 -4.49201 486
-5.63405 -7.80958 -4.45522 429
-5.62567 -7.79796 -4.41169 338
-5.63394 -7.80942 -4.38178 281
-5.79324 -8.03024 -4.47238 326
-5.80163 -8.04186 -4.44157 428
-5.80995 -8.0534 -4.41071 504
-5.82665 -8.07655 -4.38637 519
-5.8602 -8.12305 -4.37493 480
-5.9614 -8.26333 -4.41494 494
-6.10514 -8.46257 -4.48603 511
-6.06268 -8.40371 -4.41525 513
-6.06246 -8.40342 -4.37665 445
-6.07917 -8.42657 -4.35068 378
-6.09584 -8.44968 -4.32457 382
-6.11247 -8.47273 -4.29832 334
-6.34247 -8.79154 -4.42571 303
-6.3764 -8.83858 -4.41025 363
-6.39323 -8.8619 -4.38236 392
-6.44429 -8.93268 -4.37838 373
-6.52972 -9.0511 -4.39775 331
-6.72698 -9.32452 -4.49322 367
-6.73539 -9.33619 -4.45737 410
-6.7179 -9.31194 -4.404 329
-5.92412 -8.21165 -3.83057 457
-5.93995 -8.2336 -3.80479 624
-5.93846 -8.23153 -3.7675 688
-5.93688 -8.22934 -3.73027 746
-5.9439 -8.23907 -3.69868 771
-5.95085 -8.2487 -3.66706 945
-5.94906 -8.24622 -3.6299 1047
-5.96458 -8.26774 -3.60371 876
-5.91913 -8.20473 -3.53953 760
-5.89964 -8.17772 -3.49196 840
-5.88003 -8.15054 -3.44464 750
-5.87778 -8.14742 -3.4081 547
-5.84047 -8.09571 -3.35073 457
-5.82928 -8.08019 -3.30933 398
-5.80922 -8.05238 -3.26295 404
-6.16634 -8.5474 -3.43518 380
-7.28832 -10.1026 -4.04126 496
-7.2959 -10.1131 -4.0024 489
-7.2946 -10.1113 -3.95855 361
-7.24916 -10.0483 -3.89032 459
-7.24765 -10.0462 -3.84683 426
-7.22838 -10.0195 -3.7938 476
-7.22667 -10.0172 -3.75052 492
-5.77407 -8.00366 -2.93676 526
-7.1787 -9.95067 -3.64086 460
-7.17668 -9.94787 -3.59799 520
-7.18344 -9.95725 -3.55973 466
-7.18125 -9.95421 -3.51692 307
-5.78348 -8.0167 -2.77403 332
-5.79762 -8.03631 -2.74769 404
-5.79392 -8.03118 -2.7125 435
-5.79906 -8.0383 -2.68169 506
-5.80414 -8.04534 -2.65086 628
-5.80023 -8.03993 -2.61577 600
-5.80519 -8.0468 -2.58493 493
-5.81009 -8.0536 -2.55406 538
-5.80599 -8.0479 -2.51909 616
-5.81077 -8.05453 -2.48822 677
-5.80652 -8.04865 -2.45334 734
-5.81118 -8.05511 -2.42247 574
-5.80681 -8.04904 -2.38769 378
-5.82932 -8.08025 -2.36448 368
-5.82482 -8.07401 -2.32969 389
-6.0813 -8.42953 -2.40335 548
-5.84263 -8.0987 -2.27141 692
-5.83794 -8.0922 -2.2367 821
-5.81513 -8.06058 -2.19489 677
-5.81932 -8.06638 -2.16397 602
-5.83248 -8.08462 -2.13652 730
-5.83655 -8.09027 -2.1055 825
-5.4877 -7.60672 -1.94201 826
-5.49142 -7.61187 -1.91286 927
-5.48602 -7.60439 -1.88038 751
-5.82508 -8.07437 -1.97149 699
-5.81978 -8.06702 -1.93731 884
-5.83256 -8.08475 -1.90952 869
-5.83622 -8.08981 -1.87851 759
-5.83073 -8.0822 -1.84442 882
-5.83427 -8.08711 -1.81342 967
-5.83775 -8.09193 -1.7824 1061
-5.84117 -8.09667 -1.75136 1240
-6.43677 -8.92226 -1.90608 1233
-6.4313 -8.91468 -1.86901 1191
-5.83285 -8.08514 -1.65261 972
-5.83603 -8.08955 -1.6216 1089
-5.84829 -8.10654 -1.59323 1048
-5.85136 -8.1108 -1.56213 1041
-5.85438 -8.11498 -1.53102 1231
-5.84819 -8.1064 -1.49738 1234
-5.64062 -7.81868 -1.40959 1132
-5.65251 -7.83517 -1.38203 1206
-5.65519 -7.83889 -1.35199 1139
-5.71281 -7.91874 -1.33584 1244
-5.70624 -7.90964 -1.30321 2087
-5.70878 -7.91316 -1.27288 2608
-5.71126 -7.9166 -1.24253 2562
-5.70451 -7.90724 -1.21006 2795
-5.71606 -7.92325 -1.18181 2656
-5.7735 -8.00287 -1.16355 2201
-6.13425 -8.50293 -1.20971 2590
-6.13662 -8.5062 -1.17708 2968
-6.13892 -8.5094 -1.14443 2789
-6.14116 -8.51251 -1.11177 2612
-6.14335 -8.51553 -1.0791 2218
-6.14547 -8.51848 -1.04642 1720
-6.15675 -8.53411 -1.0154 1396
-5.99289 -8.30698 -0.953419 1320
-5.98556 -8.29682 -0.919973 1379
-6.01506 -8.3377 -0.892715 1552
-6.01684 -8.34017 -0.860724 1894
-6.00011 -8.31698 -0.825874 2151
-5.99253 -8.30649 -0.792588 2425
-5.99413 -8.3087 -0.76072 2272
-5.98643 -8.29803 -0.727566 2179
-5.99715 -8.31288 -0.696957 2110
-5.99857 -8.31485 -0.665064 1781
-5.99993 -8.31673 -0.633163 1432
-6.00123 -8.31854 -0.601255 1269
-6.01172 -8.33307 -0.570367 1015
-6.20707 -8.60386 -0.558917 1106
-6.20823 -8.60547 -0.525894 968
-6.21858 -8.61982 -0.493742 805
-6.42315 -8.90337 -0.478868 965
-6.41491 -8.89196 -0.443903 1373
-6.41586 -8.89328 -0.40976 1505
-6.4075 -8.88168 -0.374935 1470
-6.40832 -8.88282 -0.340833 1548
-6.42759 -8.90954 -0.307884 1710
-6.42829 -8.91051 -0.273674 1798
-6.41967 -8.89856 -0.238981 1437
-6.54989 -9.07906 -0.210818 1341
-6.55041 -9.07978 -0.17595 1346
-6.52308 -9.0419 -0.140092 1382
-6.52347 -9.04244 -0.105369 1323
-6.51453 -9.03005 -0.0704138 1167
-6.5148 -9.03041 -0.0357367 937
-6.68173 -9.26181 -0.00338996 1018
-6.68187 -9.262 0.0321875 1105
-6.68194 -9.2621 0.0677654 1162
-6.68195 -9.26211 0.103344 1142
-7.98804 -11.0725 0.1488 978
-7.98789 -11.0723 0.191414 1086
-7.98766 -11.072 0.234026 1017
-7.08888 -9.82617 0.255321 1293
-7.08853 -9.82569 0.29309 1437
-7.07886 -9.81229 0.330537 1513
-7.07838 -9.81162 0.368252 1687
-7.08709 -9.82369 0.406384 1701
-7.08647 -9.82283 0.444143 1608
-7.08578 -9.82188 0.481898 1248
-7.07576 -9.80799 0.51908 918
-7.04717 -9.76835 0.554922 736
-7.17585 -9.94672 0.601826 730
-7.16561 -9.93254 0.639343 696
-7.16456 -9.93108 0.677524 611
-7.17269 -9.94235 0.716517 542
-7.35649 -10.1971 0.772096 587
-7.3552 -10.1953 0.811304 683
-7.36308 -10.2062 0.851472 705
-7.36163 -10.2042 0.890716 738
-7.84073 -10.8683 0.985447 740
-7.83904 -10.866 1.02726 729
-7.66174 -10.6202 1.0469 902
-7.65994 -10.6177 1.08775 1068
-7.65806 -10.6151 1.12859 1271
-7.6561 -10.6124 1.16942 1481
-7.65407 -10.6096 1.21024 1441
-7.66119 -10.6195 1.25247 1252
-7.65901 -10.6165 1.29332 1107
-7.65675 -10.6133 1.33415 1021
-7.65442 -10.6101 1.37497 972
-7.65201 -10.6067 1.41578 885
-7.64953 -10.6033 1.45658 780
-7.64697 -10.5998 1.49736 690
-7.64433 -10.5961 1.53813 582
-7.64162 -10.5924 1.57889 558
-7.63884 -10.5885 1.61963 548
-7.62678 -10.5718 1.65844 926
-2.66177 -3.65546 -3.34441 283
-2.79909 -3.84404 -3.45691 258
-2.80566 -3.85306 -3.44233 306
-2.81219 -3.86204 -3.4277 369
-2.8336 -3.89144 -3.43208 362
-2.84759 -3.91064 -3.42678 407
-2.86158 -3.92986 -3.42137 409
-2.86808 -3.93878 -3.40644 361
-2.87455 -3.94767 -3.39149 342
-2.88853 -3.96687 -3.38581 299
-3.09135 -4.24541 -3.6119 323
-3.0982 -4.25481 -3.59575 342
-3.10502 -4.26418 -3.57956 365
-3.12702 -4.29439 -3.58164 390
-3.1262 -4.29326 -3.55618 412
-3.13294 -4.30252 -3.53984 374
-3.14731 -4.32226 -3.53249 293
-3.16169 -4.342 -3.52503 251
-3.38945 -4.6548 -3.68815 273
-3.39645 -4.6644 -3.67039 325
-3.52774 -4.8447 -3.79248 375
-3.52713 -4.84387 -3.76529 454
-3.53427 -4.85367 -3.7468 531
-3.54136 -4.86342 -3.72827 514
-3.54843 -4.87312 -3.70971 454
-3.55546 -4.88277 -3.69111 352
-0.46297 -0.635805 -0.327083 373
-3.68765 -5.06431 -3.78052 428
-3.69481 -5.07415 -3.76117 453
-0.473182 -0.649829 -0.329237 466
-0.473956 -0.650892 -0.327117 468
-0.48267 -0.66286 -0.333271 465
-4.32008 -5.93284 -4.30115 454
-4.3282 -5.94399 -4.27841 407
-4.46413 -6.13066 -4.38605 363
-4.20022 -5.76824 -4.08686 392
-4.3844 -6.02117 -4.24221 391
-4.36831 -5.99907 -4.19506 412
-4.63383 -6.36372 -4.42741 506
-4.67445 -6.4195 -4.43474 688
-4.68282 -6.43099 -4.4101 820
-4.69114 -6.44243 -4.38542 790
-4.70753 -6.46493 -4.36851 603
-4.67516 -6.42048 -4.30488 566
-4.68329 -6.43164 -4.28024 509
-4.88701 -6.71142 -4.43978 426
-4.89539 -6.72292 -4.41401 441
-5.14912 -7.07137 -4.61585 515
-5.16602 -7.09458 -4.59622 632
-5.15006 -7.07266 -4.54645 663
-5.15863 -7.08444 -4.51927 676
-5.24951 -7.20924 -4.56617 698
-5.25812 -7.22107 -4.53845 699
-5.29973 -7.27821 -4.53999 621
-5.32485 -7.3127 -4.52657 649
-5.34167 -7.33581 -4.50569 670
-5.35017 -7.34748 -4.47748 618
-5.47505 -7.51898 -4.54928 670
-5.50029 -7.55364 -4.53457 622
-5.50884 -7.56538 -4.50551 588
-5.6009 -7.69181 -4.54654 633
-5.61784 -7.71507 -4.52391 586
-5.62637 -7.72679 -4.49423 484
-5.62645 -7.7269 -4.45762 436
-5.62645 -7.7269 -4.42105 407
-5.63479 -7.73835 -4.39132 334
-5.73583 -7.87711 -4.43572 305
-5.8202 -7.99298 -4.46569 359
-5.82862 -8.00455 -4.43492 430
-5.83699 -8.01603 -4.40411 483
-5.85377 -8.03909 -4.37981 501
-5.98095 -8.21375 -4.44009 468
-6.04036 -8.29534 -4.44729 496
-6.05727 -8.31855 -4.42177 554
-6.06561 -8.33 -4.38973 516
-6.07388 -8.34137 -4.35765 438
-6.09066 -8.36441 -4.33181 406
-6.13309 -8.42268 -4.32457 458
-6.14982 -8.44566 -4.29832 450
-6.19229 -8.50397 -4.29039 338
-6.41537 -8.81034 -4.41025 402
-6.42368 -8.82176 -4.3763 426
-6.49229 -8.91597 -4.38439 363
-6.50919 -8.93918 -4.35599 344
-6.76808 -9.29473 -4.49322 367
-6.77655 -9.30636 -4.45737 437
-6.05701 -8.3182 -3.93198 619
-6.06444 -8.3284 -3.89994 961
-6.07181 -8.33852 -3.86787 1047
-6.07912 -8.34856 -3.83576 830
-5.98187 -8.21501 -3.73591 616
-5.86687 -8.05708 -3.62595 567
-5.88246 -8.07849 -3.60049 827
-5.88928 -8.08785 -3.56939 886
-5.89604 -8.09713 -3.53825 769
-5.9115 -8.11836 -3.51249 820
-5.90938 -8.11545 -3.47588 910
-5.90719 -8.11244 -3.43932 821
-5.86097 -8.04896 -3.3765 697
-5.86737 -8.05775 -3.34551 731
-5.85609 -8.04227 -3.30415 624
-5.8359 -8.01454 -3.25782 591
-5.82443 -7.99878 -3.21682 643
-5.83053 -8.00717 -3.18604 639
-5.83658 -8.01547 -3.15522 470
-5.84257 -8.0237 -3.12437 363
-7.29346 -10.0162 -3.89032 373
-7.26532 -9.97758 -3.83231 349
-7.21926 -9.91433 -3.76504 395
-5.8126 -7.98255 -2.97218 712
-5.81825 -7.99031 -2.94146 866
-5.81494 -7.98575 -2.90606 641
-5.81155 -7.9811 -2.87072 597
-5.81701 -7.9886 -2.84001 522
-5.82241 -7.99602 -2.80926 446
-5.82776 -8.00337 -2.77849 510
-5.83305 -8.01063 -2.74769 467
-5.82933 -8.00552 -2.7125 499
-5.8345 -8.01261 -2.68169 667
-5.83961 -8.01963 -2.65086 755
-5.84466 -8.02658 -2.61999 733
-5.84966 -8.03344 -2.5891 639
-5.8546 -8.04022 -2.55819 687
-5.85047 -8.03456 -2.52317 789
-5.85529 -8.04117 -2.49225 755
-5.84201 -8.02293 -2.45334 788
-5.8467 -8.02937 -2.42247 684
-5.85133 -8.03573 -2.39157 463
-5.86494 -8.05443 -2.36448 417
-5.86947 -8.06064 -2.33348 390
-6.10941 -8.39016 -2.39961 554
-6.114 -8.39646 -2.3673 741
-6.10945 -8.39022 -2.33133 790
-6.13207 -8.42127 -2.30621 561
-5.87305 -8.06556 -2.17105 548
-6.20447 -8.5207 -2.26578 733
-6.20881 -8.52666 -2.23297 771
-6.15846 -8.45752 -2.17975 857
-5.51587 -7.57504 -1.90951 1129
-5.52866 -7.59261 -1.88368 1237
-5.5323 -7.5976 -1.85449 1080
-6.23871 -8.56773 -2.07176 741
-6.27922 -8.62336 -2.05137 949
-6.28316 -8.62877 -2.01815 1021
-6.50652 -8.93552 -2.05822 865
-6.50132 -8.92838 -2.02079 1127
-6.48689 -8.90856 -1.98047 1202
-6.4907 -8.91379 -1.94615 1266
-6.46694 -8.88116 -1.90323 1606
-6.47061 -8.88619 -1.86901 1550
-6.47421 -8.89114 -1.83477 939
-5.88088 -8.07631 -1.62431 688
-5.64515 -7.75258 -1.52402 818
-5.64811 -7.75665 -1.49421 1068
-5.65102 -7.76065 -1.46437 1221
-5.65388 -7.76457 -1.43453 1250
-5.66588 -7.78106 -1.40713 1459
-5.66863 -7.78483 -1.3772 1564
-5.68054 -7.80118 -1.34963 1251
-5.74772 -7.89344 -1.33584 1217
-5.74111 -7.88437 -1.30321 1829
-5.74366 -7.88787 -1.27288 2267
-5.74616 -7.8913 -1.24253 2294
-5.7486 -7.89466 -1.21218 2586
-5.75099 -7.89793 -1.18181 2514
-5.80878 -7.9773 -1.16355 2119
-6.17174 -8.47576 -1.20971 2883
-6.17412 -8.47902 -1.17708 3237
-6.16718 -8.4695 -1.14256 2898
-6.16944 -8.47259 -1.10995 2577
-6.18089 -8.48832 -1.0791 2060
-6.05332 -8.31313 -1.0223 1492
-6.04608 -8.30319 -0.988627 1653
-6.03878 -8.29316 -0.955043 1661
-6.02214 -8.27031 -0.919973 1626
-6.01471 -8.2601 -0.886617 1709
-6.05361 -8.31352 -0.860724 1834
-6.01821 -8.26491 -0.823024 2090
-6.01987 -8.26719 -0.791213 2340
-6.02147 -8.26939 -0.759394 2321
-6.02302 -8.27151 -0.727566 2338
-6.0245 -8.27355 -0.695731 2331
-6.02593 -8.27551 -0.663887 1887
-6.0273 -8.27739 -0.632036 1406
-6.0286 -8.27919 -0.600178 1132
-6.23447 -8.5619 -0.590907 1000
-6.245 -8.57637 -0.558917 1205
-6.23687 -8.5652 -0.524967 1064
-6.62882 -9.10347 -0.528845 893
-6.4624 -8.87493 -0.478868 875
-6.45411 -8.86354 -0.443903 1229
-6.45507 -8.86486 -0.40976 1364
-6.45596 -8.86609 -0.375613 1352
-6.44748 -8.85444 -0.340833 1453
-6.46687 -8.88107 -0.307884 1594
-6.46758 -8.88204 -0.273674 1647
-6.46822 -8.88292 -0.23946 1353
-6.58992 -9.05004 -0.210818 1374
-6.5718 -9.02517 -0.175192 1329
-6.56294 -9.013 -0.140092 1390
-6.56334 -9.01354 -0.105369 1413
-6.55435 -9.0012 -0.0704138 1303
-6.58257 -9.03995 -0.036275 1075
-6.72257 -9.23222 -0.00338996 1114
-6.7227 -9.2324 0.0321875 1158
-6.72278 -9.2325 0.0677654 1143
-6.7321 -9.24531 0.103364 1086
-6.82524 -9.37323 0.139692 947
-6.82512 -9.37305 0.175819 1040
-6.83424 -9.38558 0.212114 1063
-7.1322 -9.79477 0.255321 1168
-7.12253 -9.7815 0.29282 1330
-7.12212 -9.78093 0.330537 1396
-7.12164 -9.78027 0.368252 1561
-7.12108 -9.77951 0.405965 1554
-7.12978 -9.79145 0.444143 1450
-7.12908 -9.79049 0.481898 1139
-7.12832 -9.78944 0.519649 869
-7.12749 -9.7883 0.557397 712
-7.2197 -9.91494 0.601826 728
-7.2094 -9.9008 0.639343 708
-7.2642 -9.97605 0.682134 660
-7.25376 -9.96171 0.71979 637
-7.41076 -10.1773 0.772964 582
-7.40945 -10.1755 0.812222 663
-7.40807 -10.1736 0.851472 717
-7.41592 -10.1844 0.891733 771
-7.88865 -10.8336 0.985447 738
-7.89624 -10.844 1.02838 730
-7.89446 -10.8416 1.07024 671
-7.70675 -10.5838 1.08775 805
-7.70486 -10.5812 1.12859 1005
-7.6936 -10.5658 1.16811 1189
-7.70085 -10.5757 1.21024 1141
-7.69873 -10.5728 1.25105 1041
-7.70582 -10.5825 1.29332 975
-7.70354 -10.5794 1.33415 905
-7.7012 -10.5762 1.37497 868
-7.69877 -10.5729 1.41578 768
-7.687 -10.5567 1.45492 661
-7.6937 -10.5659 1.49736 576
-7.68179 -10.5495 1.53637 487
-7.66054 -10.5204 1.57345 472
-7.65775 -10.5165 1.61404 465
-7.67339 -10.538 1.65844 918
-2.82325 -3.84019 -3.44233 290
-2.82983 -3.84914 -3.4277 356
-2.85137 -3.87844 -3.43208 343
-2.86544 -3.89758 -3.42678 381
-2.87952 -3.91673 -3.42137 377
-2.88606 -3.92562 -3.40644 323
-2.89257 -3.93448 -3.39149 297
-3.09623 -4.21149 -3.6187 268
-3.11073 -4.23123 -3.6119 297
-3.11763 -4.2406 -3.59575 329
-3.12449 -4.24994 -3.57956 363
-3.13897 -4.26964 -3.57248 397
-3.14579 -4.27892 -3.55618 426
-3.16796 -4.30906 -3.55798 409
-3.2826 -4.465 -3.66796 461
-3.28959 -4.47451 -3.65089 542
-3.3043 -4.49451 -3.64273 537
-3.31125 -4.50397 -3.62555 490
-3.31817 -4.51338 -3.60833 435
-3.32505 -4.52274 -3.59107 367
-3.43335 -4.67004 -3.68796 396
-3.4482 -4.69025 -3.67883 427
-3.45522 -4.69979 -3.66088 449
-3.4622 -4.70929 -3.64289 421
-3.56357 -4.84717 -3.72827 425
-3.56279 -4.84612 -3.70113 392
-3.57775 -4.86646 -3.69111 310
-3.70353 -5.03755 -3.79983 317
-3.71077 -5.0474 -3.78052 393
-3.72592 -5.06801 -3.76958 430
-4.17905 -5.68435 -4.21854 464
-4.19505 -5.70611 -4.20502 456
-4.20304 -5.71699 -4.18309 430
-4.34716 -5.91302 -4.30115 423
-4.34731 -5.91322 -4.27022 426
-4.21874 -5.73834 -4.10891 411
-4.22656 -5.74897 -4.08686 420
-4.3796 -5.95715 -4.20994 443
-4.38761 -5.96803 -4.18704 462
-4.66289 -6.34247 -4.42741 482
-4.67129 -6.3539 -4.40299 662
-4.71218 -6.40951 -4.4101 752
-4.72055 -6.42091 -4.38542 756
-4.72072 -6.42114 -4.35289 635
-4.70447 -6.39903 -4.30488 584
-4.70446 -6.39902 -4.27252 506
-4.91765 -6.689 -4.43978 412
-4.92608 -6.70046 -4.41401 425
-5.18963 -7.05895 -4.62344 531
-5.1984 -7.07088 -4.59622 689
-5.19886 -7.07151 -4.56145 715
-5.19097 -7.06077 -4.51927 693
-5.27414 -7.17389 -4.55875 692
-5.29109 -7.19695 -4.53845 584
-5.33296 -7.2539 -4.53999 496
-5.34157 -7.26562 -4.51201 530
-5.39185 -7.334 -4.52016 551
-5.40878 -7.35704 -4.49905 604
-5.51775 -7.50525 -4.55643 619
-5.52639 -7.51701 -4.52746 637
-5.54338 -7.54011 -4.50551 670
-5.55193 -7.55174 -4.47641 692
-5.56042 -7.5633 -4.44726 657
-5.61947 -7.64361 -4.45961 467
-5.62793 -7.65513 -4.4301 431
-5.65326 -7.68958 -4.41422 373
-5.76332 -7.83927 -4.46599 340
-5.77179 -7.8508 -4.43572 382
-5.78871 -7.87381 -4.4121 409
-5.86516 -7.97781 -4.43492 413
-5.8821 -8.00085 -4.41071 465
-5.89047 -8.01224 -4.37981 480
-6.0099 -8.17469 -4.43358 438
-6.07823 -8.26763 -4.44729 489
-6.09524 -8.29076 -4.42177 564
-6.10363 -8.30218 -4.38973 518
-6.20651 -8.44212 -4.42733 480
-6.20631 -8.44183 -4.38841 511
-6.11121 -8.31248 -4.28087 548
-6.11934 -8.32354 -4.24875 522
-6.13605 -8.34626 -4.22273 389
-6.45559 -8.78091 -4.41025 365
-6.1087 -8.30907 -4.12789 443
-6.10787 -8.30793 -4.08977 566
-6.09826 -8.29487 -4.04574 621
-6.09725 -8.2935 -4.00776 623
-6.10487 -8.30386 -3.97572 652
-6.11243 -8.31414 -3.94363 1090
-6.11119 -8.31246 -3.90572 1789
-6.10988 -8.31067 -3.86787 1906
-6.11724 -8.32068 -3.83576 1447
-6.11577 -8.31868 -3.79796 1051
-6.12299 -8.32851 -3.76582 1034
-6.12138 -8.32631 -3.72809 935
-5.9262 -8.06084 -3.56939 951
-5.9242 -8.05811 -3.5328 913
-5.93093 -8.06727 -3.50168 890
-5.9376 -8.07634 -3.47052 924
-5.94422 -8.08534 -3.43932 776
-5.88002 -7.99802 -3.36596 916
-5.88644 -8.00675 -3.33507 979
-5.89281 -8.01541 -3.30415 852
-5.87249 -7.98777 -3.25782 830
-5.86094 -7.97207 -3.21682 948
-5.86708 -7.98042 -3.18604 932
-5.87317 -7.9887 -3.15522 659
-5.8792 -7.9969 -3.12437 495
-5.87625 -7.99288 -3.0886 528
-5.87322 -7.98877 -3.05289 482
-5.85224 -7.96023 -3.00766 429
-5.84904 -7.95588 -2.97218 918
-5.85473 -7.96362 -2.94146 1133
-5.86036 -7.97127 -2.91071 857
-5.84798 -7.95444 -2.87072 871
-5.85348 -7.96192 -2.84001 769
-5.85892 -7.96931 -2.80926 578
-5.8643 -7.97663 -2.77849 640
-5.87863 -7.99613 -2.7521 549
-5.87489 -7.99104 -2.71686 568
-5.8801 -7.99812 -2.68601 720
-5.88525 -8.00513 -2.65512 721
-5.89034 -8.01206 -2.62421 639
-5.88633 -8.0066 -2.5891 542
-5.8913 -8.01336 -2.55819 613
-5.89622 -8.02005 -2.52724 707
-5.892 -8.01431 -2.49225 643
-5.88771 -8.00848 -2.45732 660
-5.90152 -8.02726 -2.43033 636
-5.86983 -7.98415 -2.3838 513
-5.90171 -8.02752 -2.36448 458
-6.14304 -8.35577 -2.43189 437
-6.14771 -8.36213 -2.39961 566
-6.15233 -8.36841 -2.3673 721
-6.14776 -8.36219 -2.33133 802
-6.17051 -8.39315 -2.30621 641
-6.2298 -8.47379 -2.29503 597
-6.23422 -8.4798 -2.26229 839
-6.23858 -8.48573 -2.22952 931
-6.19707 -8.42927 -2.17975 1031
-6.20128 -8.43499 -2.14719 1127
-5.55415 -7.55477 -1.88038 1416
-5.5578 -7.55973 -1.85124 1350
-6.32375 -8.60157 -2.08776 1172
-6.31859 -8.59456 -2.05137 1360
-6.32255 -8.59995 -2.01815 1399
-6.32646 -8.60526 -1.98492 1224
-6.49604 -8.83593 -2.00576 1183
-6.43542 -8.75348 -1.95091 1245
-6.41154 -8.721 -1.90835 1380
-6.49826 -8.83895 -1.90037 1626
-6.50194 -8.84396 -1.8662 1533
-5.63747 -7.6681 -1.57257 1113
-5.64978 -7.68485 -1.54569 1212
-5.65281 -7.68896 -1.51604 1190
-5.67428 -7.71816 -1.49159 1291
-5.68645 -7.73473 -1.46437 1512
-5.68932 -7.73863 -1.43453 1560
-5.69214 -7.74246 -1.40466 1844
-5.70417 -7.75883 -1.3772 2077
-5.72543 -7.78774 -1.35199 1933
-5.72809 -7.79136 -1.32194 1682
-5.73998 -7.80753 -1.29414 1621
-5.77039 -7.8489 -1.27066 1748
-5.78219 -7.86494 -1.24253 1807
-5.78465 -7.86829 -1.21218 2147
-5.78705 -7.87155 -1.18181 2089
-6.18007 -8.40615 -1.23627 2187
-6.18252 -8.40947 -1.2038 2844
-6.19421 -8.42538 -1.17324 3039
-6.18722 -8.41587 -1.13882 2615
-6.18017 -8.40628 -1.10449 2251
-6.18236 -8.40927 -1.07201 1692
-6.09127 -8.28536 -1.0223 1746
-6.08399 -8.27546 -0.988627 1950
-6.08597 -8.27815 -0.956666 1893
-6.02257 -8.19191 -0.913677 1901
-6.01508 -8.18172 -0.88052 1983
-6.02619 -8.19684 -0.850401 1821
-6.03726 -8.21189 -0.820174 2020
-6.03893 -8.21416 -0.788463 2239
-6.04053 -8.21635 -0.756743 2237
-6.05143 -8.23117 -0.726291 2223
-6.06227 -8.24592 -0.695731 2276
-6.05436 -8.23515 -0.662711 1868
-6.05573 -8.23702 -0.63091 1352
-6.05704 -8.2388 -0.599101 980
-6.66663 -9.06796 -0.634041 1068
-6.27479 -8.53499 -0.55794 1167
-6.27597 -8.53659 -0.524967 1092
-6.27708 -8.5381 -0.491987 891
-6.6715 -9.07459 -0.493767 844
-6.50394 -8.84668 -0.444681 995
-6.50491 -8.84799 -0.410488 1105
-6.49644 -8.83647 -0.375613 1150
-6.49727 -8.83761 -0.341461 1263
-6.50742 -8.85141 -0.307884 1386
-6.50813 -8.85237 -0.273674 1414
-6.64001 -9.03176 -0.246163 1315
-6.64061 -9.03257 -0.211247 1362
-6.60363 -8.98227 -0.174813 1367
-6.60409 -8.9829 -0.140092 1460
-6.60449 -8.98344 -0.105369 1485
-6.59544 -8.97113 -0.0704138 1378
-6.70824 -9.12456 -0.0378899 1188
-6.71782 -9.1376 -0.00274229 1209
-6.75547 -9.18881 0.0322671 1158
-6.75555 -9.18891 0.0677952 1056
-6.8212 -9.27822 0.103465 979
-6.82114 -9.27813 0.139342 1015
-6.86791 -9.34174 0.175819 1063
-6.84895 -9.31596 0.211604 1087
-6.86745 -9.34112 0.248069 920
-7.16719 -9.74883 0.29282 1058
-7.16677 -9.74826 0.330537 1106
-7.16629 -9.7476 0.368252 1241
-7.16573 -9.74684 0.405965 1226
-7.17448 -9.75874 0.444143 1128
-7.17378 -9.75779 0.481898 899
-7.17301 -9.75675 0.519649 710
-7.31274 -9.94681 0.566679 669
-7.31182 -9.94555 0.605169 689
-7.31082 -9.94419 0.643654 686
-7.30974 -9.94273 0.682134 689
-7.3086 -9.94118 0.720608 683
-7.29802 -9.92679 0.758207 572
-7.4559 -10.1415 0.812222 582
-7.46388 -10.1524 0.85244 690
-7.46242 -10.1504 0.891733 775
-7.47024 -10.161 0.932086 715
-7.61831 -10.3624 0.989285 712
-7.61659 -10.3601 1.0294 773
-7.5961 -10.3322 1.06707 875
-7.60359 -10.3424 1.10833 1002
-7.60164 -10.3398 1.14837 1107
-7.59963 -10.337 1.18839 1107
-7.57886 -10.3088 1.22557 911
-7.74479 -10.5345 1.29185 766
-7.74251 -10.5314 1.33264 706
-7.74015 -10.5282 1.37341 663
-7.73771 -10.5249 1.41417 572
-7.7352 -10.5214 1.45492 475
-7.71396 -10.4926 1.49222 415
-7.71131 -10.4889 1.53284 378
-7.70857 -10.4852 1.57345 374
-7.70576 -10.4814 1.61404 368
-7.7215 -10.5028 1.65844 731
-2.73248 -3.68267 -3.41698 251
-2.73161 -3.68151 -3.39318 268
-2.73814 -3.69031 -3.37913 262
-2.84011 -3.82773 -3.44233 276
-2.84673 -3.83665 -3.4277 333
-2.8684 -3.86586 -3.43208 313
-2.88255 -3.88494 -3.42678 337
-2.89672 -3.90403 -3.42137 332
-2.9033 -3.91289 -3.40644 280
-3.12931 -4.2175 -3.6119 277
-3.13625 -4.22685 -3.59575 313
-3.14315 -4.23615 -3.57956 349
-3.15002 -4.24542 -3.56333 388
-3.29574 -4.44181 -3.7111 455
-3.30286 -4.45141 -3.69406 535
-3.30995 -4.46096 -3.67699 607
-3.30924 -4.46 -3.65089 677
-3.32403 -4.47994 -3.64273 674
-3.33102 -4.48936 -3.62555 715
-3.33798 -4.49874 -3.60833 741
-3.34491 -4.50807 -3.59107 788
-3.3518 -4.51737 -3.57378 742
-3.35867 -4.52661 -3.55644 545
-3.47585 -4.68455 -3.66088 460
-3.48288 -4.69402 -3.64289 452
-3.49778 -4.71411 -3.63349 380
-3.55235 -4.78764 -3.66683 336
-3.56733 -4.80784 -3.65698 275
-3.72565 -5.02121 -3.79983 274
-3.73293 -5.03103 -3.78052 338
-4.1959 -5.65499 -4.24034 426
-4.20401 -5.66592 -4.21854 525
-4.2201 -5.68761 -4.20502 491
-4.22815 -5.69845 -4.18309 459
-4.23615 -5.70923 -4.16113 410
-4.37328 -5.89405 -4.27022 426
-4.38144 -5.90505 -4.24748 425
-4.38956 -5.916 -4.2247 465
-4.40576 -5.93783 -4.20994 495
-4.41381 -5.94868 -4.18704 504
-4.67444 -6.29993 -4.41145 479
-4.69919 -6.3333 -4.40299 640
-4.71578 -6.35566 -4.38642 699
-4.74055 -6.38904 -4.37757 715
-4.74892 -6.40031 -4.35289 650
-4.73257 -6.37828 -4.30488 577
-4.73256 -6.37826 -4.27252 478
-4.8645 -6.55609 -4.36303 425
-4.87284 -6.56733 -4.33769 437
-5.21235 -7.0249 -4.61585 526
-5.22945 -7.04795 -4.59622 712
-5.22992 -7.04857 -4.56145 740
-5.26359 -7.09396 -4.55655 721
-5.30564 -7.15063 -4.55875 705
-5.19743 -7.00479 -4.42792 560
-5.20589 -7.01619 -4.40083 464
-5.37348 -7.24206 -4.51201 463
-5.43244 -7.32153 -4.52739 549
-5.44949 -7.3445 -4.50625 631
-5.5507 -7.48091 -4.55643 623
-5.56783 -7.50399 -4.53457 721
-5.57648 -7.51566 -4.50551 770
-5.58509 -7.52725 -4.47641 735
-5.59363 -7.53877 -4.44726 650
-5.64455 -7.60739 -4.45269 488
-5.66155 -7.6303 -4.4301 428
-5.78915 -7.80228 -4.49622 335
-5.79774 -7.81385 -4.46599 376
-5.78919 -7.80233 -4.42224 448
-5.80618 -7.82523 -4.39871 473
-5.81458 -7.83655 -4.36839 436
-5.92581 -7.98646 -4.41732 448
-5.92566 -7.98625 -4.37981 488
-5.94262 -8.00911 -4.35538 458
-5.99399 -8.07835 -4.3567 467
-6.15752 -8.29874 -4.44105 524
-6.12282 -8.25198 -4.37697 495
-6.23494 -8.40308 -4.42099 533
-6.1135 -8.23941 -4.29408 694
-6.1217 -8.25047 -4.26214 904
-6.13852 -8.27314 -4.23636 890
-6.14661 -8.28405 -4.20428 659
-6.13724 -8.27141 -4.15996 549
-6.14518 -8.28212 -4.12789 757
-6.15307 -8.29275 -4.09578 951
-6.13468 -8.26797 -4.04574 924
-6.14242 -8.27839 -4.01368 777
-6.14133 -8.27693 -3.97572 790
-6.14016 -8.27535 -3.9378 1501
-6.14769 -8.2855 -3.90572 2533
-6.15517 -8.29557 -3.8736 2626
-6.15377 -8.29369 -3.83576 1943
-6.1523 -8.29171 -3.79796 1520
-6.15957 -8.3015 -3.76582 1646
-6.15794 -8.29931 -3.72809 1491
-6.16508 -8.30893 -3.69592 988
-5.95073 -8.02004 -3.52735 907
-5.95749 -8.02915 -3.49627 867
-5.97307 -8.05015 -3.47052 845
-5.91751 -7.97528 -3.40213 749
-5.91514 -7.97208 -3.36596 970
-5.9216 -7.98078 -3.33507 1034
-5.91908 -7.97739 -3.29898 949
-5.90756 -7.96187 -3.25782 951
-5.89595 -7.94621 -3.21682 1077
-5.90213 -7.95454 -3.18604 1055
-5.89929 -7.95072 -3.15024 783
-5.91431 -7.97096 -3.12437 580
-5.91134 -7.96696 -3.0886 596
-5.9083 -7.96286 -3.05289 580
-6.12997 -8.26162 -3.13709 608
-5.89298 -7.94221 -2.97693 981
-5.89871 -7.94993 -2.94616 1097
-5.89536 -7.94542 -2.91071 822
-5.89194 -7.94081 -2.87533 894
-5.88844 -7.93609 -2.84001 746
-5.89391 -7.94347 -2.80926 471
-5.89932 -7.95076 -2.77849 517
-5.91374 -7.9702 -2.7521 470
-5.91905 -7.97735 -2.72123 497
-5.9243 -7.98442 -2.69032 606
-5.9204 -7.97917 -2.65512 564
-6.17105 -8.31698 -2.73814 498
-6.16722 -8.31182 -2.70173 397
-5.92649 -7.98738 -2.55819 393
-5.93143 -7.99404 -2.52724 492
-5.92719 -7.98832 -2.49225 453
-5.93201 -7.99482 -2.4613 480
-5.93677 -8.00123 -2.43033 514
-5.94147 -8.00757 -2.39933 460
-5.94612 -8.01383 -2.36831 427
-5.60258 -7.55083 -2.19343 412
-5.60684 -7.55657 -2.1642 659
-5.61104 -7.56223 -2.13495 802
-5.61519 -7.56783 -2.10568 705
-6.20737 -8.36593 -2.30621 555
-6.21183 -8.37195 -2.27378 573
-6.27145 -8.4523 -2.26229 783
-6.27584 -8.45821 -2.22952 925
-6.23409 -8.40194 -2.17975 1018
-6.23832 -8.40764 -2.14719 1114
-6.28862 -8.47544 -2.13109 1126
-6.36663 -8.58057 -2.12423 1271
-6.37076 -8.58613 -2.09096 1430
-6.36557 -8.57915 -2.05452 1518
-6.36957 -8.58453 -2.02126 1543
-6.3735 -8.58983 -1.98797 1439
-6.47926 -8.73237 -1.98773 1218
-6.43679 -8.67512 -1.93908 1320
-6.44056 -8.68021 -1.90544 1544
-6.47212 -8.72274 -1.88036 1550
-6.47578 -8.72768 -1.84653 1541
-5.67114 -7.64323 -1.57257 1632
-5.68353 -7.65992 -1.54569 1909
-5.68657 -7.66402 -1.51604 1793
-5.68956 -7.66805 -1.48637 1644
-5.71111 -7.69709 -1.46181 1750
-5.72331 -7.71354 -1.43453 1753
-5.72614 -7.71735 -1.40466 1922
-5.74756 -7.74623 -1.37962 2155
-5.75962 -7.76248 -1.35199 2374
-5.77163 -7.77867 -1.32425 2220
-5.77426 -7.78221 -1.29414 1841
-6.22522 -8.38999 -1.37047 1762
-6.21859 -8.38105 -1.33578 1623
-6.22123 -8.38461 -1.3033 1674
-6.22382 -8.3881 -1.2708 1936
-6.20763 -8.36627 -1.23425 2151
-6.21944 -8.3822 -1.2038 2549
-6.22184 -8.38543 -1.17132 2667
-6.21481 -8.37595 -1.13695 2232
-6.21708 -8.37901 -1.10449 1772
-6.13491 -8.26827 -1.05606 1722
-6.12765 -8.25849 -1.0223 1789
-6.12033 -8.24862 -0.988627 1986
-6.12232 -8.25131 -0.956666 1937
-6.04915 -8.15269 -0.912103 2278
-6.04161 -8.14253 -0.878995 2502
-6.0434 -8.14494 -0.847452 2113
-6.06392 -8.1726 -0.818749 2036
-6.0562 -8.16219 -0.785712 2125
-6.05781 -8.16436 -0.754092 2117
-6.05936 -8.16645 -0.722463 1993
-6.08908 -8.2065 -0.694505 1940
-6.09052 -8.20844 -0.662711 1725
-6.0919 -8.2103 -0.63091 1267
-6.09322 -8.21209 -0.599101 890
-6.70644 -9.03855 -0.634041 985
-6.71718 -9.05303 -0.59996 1063
-6.30403 -8.49621 -0.524039 1073
-6.85152 -9.23408 -0.542009 1040
-6.86209 -9.24833 -0.507011 1041
-6.76895 -9.12279 -0.463351 935
-6.76995 -9.12414 -0.427962 1086
-6.77089 -9.12541 -0.392569 1051
-6.64921 -8.96141 -0.349002 1019
-6.54628 -8.8227 -0.307884 1087
-6.547 -8.82366 -0.273674 1104
-6.67967 -9.00247 -0.246163 1245
-6.64254 -8.95243 -0.209532 1342
-6.64307 -8.95314 -0.174813 1379
-6.64353 -8.95377 -0.140092 1493
-6.64393 -8.9543 -0.105369 1522
-6.63483 -8.94204 -0.0704138 1385
-6.7483 -9.09497 -0.0378899 1249
-6.75794 -9.10796 -0.00274229 1247
-6.76752 -9.12086 0.032506 1203
-6.76759 -9.12096 0.0678844 1110
-6.7676 -9.12097 0.103263 1036
-6.87132 -9.26076 0.139412 1069
-6.87119 -9.26059 0.175339 1069
-6.88043 -9.27304 0.211435 1065
-6.88016 -9.27268 0.247409 890
-7.72882 -10.4165 0.30765 915
-7.73781 -10.4286 0.348432 891
-7.20909 -9.71599 0.368252 860
-7.20853 -9.71523 0.405965 844
-7.21733 -9.72709 0.444143 763
-7.72582 -10.4124 0.509927 739
-7.73442 -10.424 0.550941 637
-7.37527 -9.93996 0.567916 611
-7.36491 -9.926 0.605837 639
-7.35448 -9.91194 0.643654 649
-7.3534 -9.91049 0.682134 657
-7.35225 -9.90894 0.720608 667
-7.35103 -9.90729 0.759075 556
-7.65114 -10.3118 0.826907 584
-7.65913 -10.3225 0.867922 717
-7.65763 -10.3205 0.908013 822
-7.65605 -10.3184 0.948094 780
-7.6544 -10.3162 0.988168 775
-7.64327 -10.3011 1.02707 853
-7.64147 -10.2987 1.06707 997
-7.63959 -10.2962 1.10707 1134
-7.63764 -10.2936 1.14705 1261
-7.62622 -10.2782 1.18566 1268
-7.61473 -10.2627 1.22416 1082
-7.61256 -10.2598 1.26401 924
-7.61031 -10.2567 1.30385 743
-7.59861 -10.241 1.34212 575
-7.59622 -10.2377 1.38189 518
-7.61252 -10.2597 1.42497 463
-7.60997 -10.2563 1.46481 445
-7.65423 -10.3159 1.51345 419
-7.65152 -10.3123 1.55351 405
-7.63936 -10.2959 1.5917 406
-7.62713 -10.2794 1.62977 754
-2.71293 -3.61765 -3.34441 256
-2.85289 -3.80429 -3.45691 267
-2.85958 -3.81321 -3.44233 281
-2.86624 -3.82209 -3.4277 311
-2.87288 -3.83094 -3.41304 275
-2.90993 -3.88035 -3.43626 275
-2.91658 -3.88921 -3.42137 273
-3.15076 -4.2015 -3.6119 274
-3.15775 -4.21081 -3.59575 328
-3.3039 -4.40571 -3.74505 412
-3.31114 -4.41535 -3.72809 522
-3.31834 -4.42496 -3.7111 649
-3.32551 -4.43452 -3.69406 733
-3.33264 -4.44403 -3.67699 799
-3.33975 -4.45351 -3.65988 795
-3.35466 -4.47339 -3.65168 710
-3.36171 -4.4828 -3.63446 629
-3.36874 -4.49216 -3.61719 552
-3.37573 -4.50149 -3.5999 483
-3.38269 -4.51077 -3.58256 379
-3.50049 -4.66786 -3.68757 357
-3.49968 -4.66678 -3.66088 406
-3.51471 -4.68681 -3.65155 445
-3.39425 -4.52619 -3.49562 388
-3.40101 -4.5352 -3.47819 395
-3.40774 -4.54418 -3.46072 283
-3.87146 -5.16253 -3.92719 268
-4.21646 -5.62259 -4.26209 326
-4.22466 -5.63353 -4.24034 466
-4.23283 -5.64442 -4.21854 556
-4.24903 -5.66603 -4.20502 515
-4.25713 -5.67683 -4.18309 487
-4.25708 -5.67675 -4.15289 433
-4.40326 -5.87168 -4.27022 402
-4.41148 -5.88264 -4.24748 422
-4.41966 -5.89355 -4.2247 475
-4.43597 -5.9153 -4.20994 508
-4.44407 -5.92611 -4.18704 514
-4.52598 -6.03533 -4.2359 463
-4.73141 -6.30927 -4.40299 583
-4.73988 -6.32056 -4.37853 644
-4.75655 -6.3428 -4.36187 669
-4.77321 -6.36501 -4.34509 653
-4.78157 -6.37616 -4.32041 581
-4.765 -6.35406 -4.27252 450
-5.13879 -6.85251 -4.58563 440
-5.19755 -6.93085 -4.60482 477
-5.2064 -6.94265 -4.57791 597
-5.2653 -7.02121 -4.59622 689
-5.27414 -7.03298 -4.56895 748
-5.29968 -7.06704 -4.55655 783
-5.32522 -7.10111 -4.54393 733
-5.30032 -7.06791 -4.48687 605
-5.35948 -7.14679 -4.50337 560
-5.46093 -7.28207 -4.55569 587
-5.46969 -7.29375 -4.52739 675
-5.48685 -7.31664 -4.50625 667
-5.59723 -7.46383 -4.56358 640
-5.606 -7.47552 -4.53457 778
-5.61472 -7.48714 -4.50551 803
-5.62337 -7.49869 -4.47641 723
-5.63198 -7.51016 -4.44726 599
-5.68324 -7.57852 -4.45269 475
-5.70036 -7.60135 -4.4301 386
-5.84598 -7.79553 -4.50989 318
-5.82032 -7.76131 -4.45242 419
-5.82888 -7.77273 -4.42224 529
-5.83738 -7.78406 -4.39201 545
-5.84582 -7.79532 -4.36174 482
-5.9319 -7.91011 -4.39089 432
-5.94899 -7.93289 -4.36669 466
-5.98336 -7.97872 -4.35538 451
-6.03508 -8.04769 -4.3567 504
-6.05214 -8.07044 -4.33181 504
-6.1561 -8.20907 -4.37059 474
-6.14709 -8.19706 -4.32598 522
-6.14669 -8.19652 -4.28779 861
-6.16367 -8.21916 -4.26214 1229
-6.1806 -8.24175 -4.23636 1252
-6.18875 -8.25261 -4.20428 886
-6.17931 -8.24002 -4.15996 723
-6.18731 -8.25069 -4.12789 1030
-6.19526 -8.26128 -4.09578 1320
-6.20314 -8.2718 -4.06363 1181
-6.19334 -8.25873 -4.0196 843
-6.18343 -8.24552 -3.97572 836
-6.18226 -8.24395 -3.9378 1745
-6.18984 -8.25406 -3.90572 2994
-6.19736 -8.26409 -3.8736 3050
-6.20482 -8.27404 -3.84145 2234
-6.20335 -8.27208 -3.80361 1795
-6.20179 -8.27 -3.76582 1984
-6.20015 -8.26782 -3.72809 1803
-6.20734 -8.2774 -3.69592 1199
-6.20555 -8.27501 -3.65825 850
-6.2126 -8.28442 -3.62605 764
-6.21066 -8.28183 -3.58845 753
-6.21758 -8.29106 -3.55623 711
-5.94673 -7.92988 -3.3607 777
-5.95323 -7.93854 -3.32986 805
-5.95966 -7.94712 -3.29898 808
-5.93908 -7.91967 -3.2527 845
-5.93637 -7.91606 -3.21682 932
-5.93358 -7.91235 -3.18101 914
-5.93974 -7.92055 -3.15024 705
-5.94583 -7.92868 -3.11943 492
-6.15968 -8.21384 -3.20104 559
-6.16587 -8.2221 -3.16908 986
-6.172 -8.23027 -3.13709 1106
-5.9515 -7.93625 -2.98642 842
-5.95729 -7.94396 -2.95555 833
-5.95394 -7.93949 -2.92001 627
-5.9596 -7.94704 -2.88913 774
-5.9652 -7.95451 -2.85823 585
-5.96164 -7.94976 -2.82279 265
-6.2041 -8.27307 -2.90782 292
-6.20973 -8.28059 -2.87563 375
-6.22444 -8.3002 -2.84777 477
-6.21168 -8.28319 -2.80685 525
-6.20798 -8.27825 -2.77035 544
-6.21335 -8.28542 -2.73814 504
-6.20951 -8.28029 -2.70173 376
-6.21475 -8.28728 -2.66951 283
-6.21076 -8.28196 -2.63319 320
-6.84059 -9.12182 -2.8748 292
-6.87374 -9.16603 -2.8512 455
-6.86086 -9.14886 -2.80763 553
-6.8571 -9.14384 -2.76811 568
-6.85325 -9.13871 -2.72866 492
-5.64099 -7.52218 -2.19343 518
-5.64528 -7.5279 -2.1642 817
-5.64951 -7.53354 -2.13495 1014
-5.65369 -7.53911 -2.10568 928
-5.64856 -7.53227 -2.07279 756
-5.65262 -7.53768 -2.04353 614
-6.62946 -8.84029 -2.38108 625
-6.31886 -8.42611 -2.22952 742
-6.31394 -8.41955 -2.19334 848
-6.31822 -8.42526 -2.16058 931
-6.32244 -8.43089 -2.12779 930
-6.41958 -8.56041 -2.12748 1267
-6.42374 -8.56596 -2.09416 1435
-6.41852 -8.55901 -2.05767 1334
-6.42255 -8.56438 -2.02436 1341
-6.45448 -8.60695 -2.00019 1308
-6.46772 -8.62461 -1.9697 1095
-6.48091 -8.64221 -1.93908 1109
-6.48472 -8.64728 -1.90544 1296
-5.69428 -7.59324 -1.62884 1723
-5.6975 -7.59754 -1.59933 1805
-5.71002 -7.61423 -1.57257 1985
-5.71313 -7.61838 -1.54298 2404
-5.71619 -7.62246 -1.51338 2132
-5.71919 -7.62646 -1.48376 1599
-5.75963 -7.68039 -1.46437 1664
-5.77192 -7.69677 -1.43704 1790
-5.78416 -7.7131 -1.40959 1958
-5.79636 -7.72936 -1.38203 2215
-5.8085 -7.74555 -1.35436 2434
-5.8112 -7.74915 -1.32425 2247
-6.25571 -8.3419 -1.4007 2232
-6.2585 -8.34562 -1.36825 2595
-6.25181 -8.3367 -1.33361 2471
-6.24506 -8.32769 -1.29906 2097
-6.23823 -8.31859 -1.2646 2052
-6.18423 -8.24658 -1.22011 2289
-6.24323 -8.32526 -1.19986 2176
-6.24564 -8.32846 -1.16747 2132
-6.0216 -8.02971 -1.09016 2072
-6.0238 -8.03264 -1.05893 2047
-6.02594 -8.0355 -1.0277 2083
-6.03746 -8.05087 -0.998179 2151
-6.04893 -8.06616 -0.968547 2009
-6.0887 -8.11919 -0.943677 2079
-6.08117 -8.10915 -0.910529 2636
-6.07358 -8.09902 -0.877471 2881
-6.08483 -8.11403 -0.847452 2408
-6.08657 -8.11636 -0.815899 2031
-6.07879 -8.10598 -0.782962 2005
-6.08987 -8.12076 -0.752766 1972
-6.09144 -8.12284 -0.721187 1740
-6.10241 -8.13747 -0.690826 1452
-6.13227 -8.1773 -0.662711 1314
-6.13366 -8.17915 -0.63091 1009
-6.30559 -8.40841 -0.618484 833
-6.30689 -8.41015 -0.585772 912
-6.90545 -9.20832 -0.614618 1023
-6.90675 -9.21005 -0.578755 1169
-6.91746 -9.22434 -0.543764 1166
-6.92811 -9.23854 -0.508666 1219
-6.92921 -9.24 -0.472685 1121
-6.81636 -9.08952 -0.427962 1095
-6.81731 -9.09078 -0.392569 1126
-6.82768 -9.10461 -0.357799 1144
-6.81899 -9.09303 -0.321767 1057
-6.76277 -9.01806 -0.283189 1079
-6.74445 -8.99363 -0.24712 1125
-6.68808 -8.91846 -0.209532 1210
-6.68861 -8.91917 -0.174813 1257
-6.68908 -8.91979 -0.140092 1419
-6.67998 -8.90766 -0.105089 1469
-6.7848 -9.04743 -0.0729364 1378
-6.78507 -9.04779 -0.0377104 1206
-6.81377 -9.08607 -0.00287182 1186
-6.81391 -9.08626 0.032506 1214
-6.81399 -9.08635 0.0678844 1253
-6.81399 -9.08636 0.103263 1244
-6.91842 -9.22562 0.139412 1074
-6.91829 -9.22545 0.175339 1007
-6.9276 -9.23785 0.211435 950
-7.78219 -10.3774 0.267187 828
-7.78181 -10.3769 0.30765 903
-7.79086 -10.389 0.348432 880
-7.79982 -10.401 0.389309 833
-7.78972 -10.3875 0.429446 792
-7.78904 -10.3866 0.469948 796
-7.77879 -10.3729 0.509927 788
-7.5786 -10.1059 0.538424 831
-7.56822 -10.0921 0.577198 871
-7.57675 -10.1035 0.617205 780
-7.59469 -10.1274 0.658024 765
-7.60307 -10.1386 0.698269 758
-7.60188 -10.137 0.73779 684
-7.60061 -10.1353 0.777304 664
-7.70359 -10.2726 0.826907 654
-7.70216 -10.2707 0.866955 780
-7.58689 -10.117 0.894786 907
-7.69906 -10.2666 0.947027 858
-7.6974 -10.2644 0.987051 847
-7.68619 -10.2494 1.0259 982
-7.68438 -10.247 1.06585 1139
-7.6825 -10.2445 1.1058 1248
-7.68054 -10.2419 1.14574 1388
-7.66904 -10.2266 1.18429 1399
-7.66693 -10.2237 1.22416 1223
-7.66475 -10.2208 1.26401 1068
-7.66249 -10.2178 1.30385 844
-7.6507 -10.2021 1.34212 625
-7.64829 -10.1989 1.38189 549
-7.65526 -10.2082 1.4233 465
-7.6527 -10.2048 1.4631 443
-7.6595 -10.2138 1.50464 420
-7.65679 -10.2102 1.54445 413
-7.654 -10.2065 1.58425 418
-7.67942 -10.2404 1.62977 736
-2.86946 -3.7918 -3.45691 258
-2.88379 -3.81074 -3.45192 271
-2.90575 -3.83975 -3.45637 299
-2.92011 -3.85873 -3.45111 271
-9.02726 -11.9289 -10.989 285
-9.04062 -11.9466 -10.9327 269
-9.06922 -11.9844 -10.8953 280
-9.09007 -12.0119 -10.8483 298
-9.11855 -12.0496 -10.8105 282
-3.16907 -4.18771 -3.6119 293
-3.17609 -4.19699 -3.59575 352
-3.18308 -4.20623 -3.57956 403
-3.19004 -4.21543 -3.56333 405
-3.19697 -4.22459 -3.54707 409
-3.34482 -4.41996 -3.69406 414
-3.352 -4.42945 -3.67699 472
-3.35915 -4.43889 -3.65988 542
-3.36626 -4.44829 -3.64273 569
-3.37334 -4.45765 -3.62555 637
-3.38039 -4.46696 -3.60833 708
-3.38741 -4.47623 -3.59107 875
-3.39439 -4.48546 -3.57378 964
-3.40134 -4.49464 -3.55644 810
-3.40825 -4.50378 -3.53908 693
-3.41514 -4.51288 -3.52167 544
-3.42199 -4.52193 -3.50424 387
-3.42077 -4.52032 -3.47819 285
-3.87824 -5.12484 -3.93856 278
-3.71653 -4.91115 -3.74039 306
-4.00661 -5.29447 -4.01708 359
-4.2492 -5.61504 -4.24034 445
-4.25742 -5.62589 -4.21854 521
-4.26559 -5.63669 -4.1967 500
-4.27372 -5.64743 -4.17482 488
-4.27365 -5.64734 -4.14465 444
-4.28168 -5.65795 -4.12273 397
-4.28147 -5.65768 -4.09261 405
-4.44533 -5.87421 -4.2247 428
-4.46173 -5.89588 -4.20994 458
-4.46989 -5.90666 -4.18704 469
-4.54402 -6.00462 -4.22792 505
-4.5522 -6.01544 -4.20458 570
-4.76741 -6.29982 -4.37853 579
-4.78418 -6.32198 -4.36187 637
-4.79262 -6.33313 -4.33728 649
-4.79269 -6.33322 -4.30488 584
-5.09299 -6.73005 -4.55043 454
-5.10179 -6.74168 -4.52422 456
-5.22774 -6.90811 -4.60482 485
-5.23664 -6.91987 -4.57791 610
-5.24549 -6.93156 -4.55095 687
-5.30477 -7.0099 -4.56895 684
-5.33889 -7.05499 -4.56401 764
-5.35616 -7.0778 -4.54393 739
-5.33957 -7.05589 -4.49424 650
-5.39061 -7.12334 -4.50337 662
-5.49265 -7.25818 -4.55569 706
-5.50146 -7.26981 -4.52739 785
-5.51021 -7.28138 -4.49905 714
-5.62974 -7.43933 -4.56358 589
-5.6471 -7.46227 -4.54167 733
-5.64733 -7.46257 -4.50551 748
-5.65604 -7.47408 -4.47641 673
-5.66469 -7.48552 -4.44726 547
-5.68189 -7.50823 -4.42499 449
-5.72487 -7.56503 -4.42322 339
-5.84546 -7.72439 -4.48255 298
-5.85413 -7.73584 -4.45242 454
-5.86274 -7.74722 -4.42224 584
-5.87129 -7.75852 -4.39201 590
-5.88845 -7.7812 -4.36839 528
-5.91426 -7.81531 -4.35125 488
-5.94877 -7.8609 -4.34044 446
-6.02682 -7.96405 -4.36189 422
-6.07014 -8.02128 -4.3567 539
-6.0873 -8.04396 -4.33181 580
-6.20061 -8.19369 -4.37697 479
-6.19156 -8.18173 -4.33231 505
-6.1824 -8.16963 -4.28779 852
-6.19947 -8.19219 -4.26214 1256
-6.21651 -8.2147 -4.23636 1289
-6.2159 -8.2139 -4.19813 917
-6.2152 -8.21298 -4.15996 785
-6.22325 -8.22362 -4.12789 1074
-6.23124 -8.23417 -4.09578 1331
-6.23917 -8.24465 -4.06363 1187
-6.24704 -8.25505 -4.03144 858
-6.2371 -8.24191 -3.98747 780
-6.21817 -8.2169 -3.9378 1618
-6.2258 -8.22698 -3.90572 2835
-6.23336 -8.23697 -3.8736 2906
-6.24978 -8.25868 -3.84713 2183
-6.25724 -8.26853 -3.81489 1762
-6.23782 -8.24286 -3.76582 1847
-6.24512 -8.25251 -3.73364 1681
-6.2434 -8.25024 -3.69592 1165
-6.2416 -8.24786 -3.65825 938
-6.24869 -8.25723 -3.62605 958
-6.25573 -8.26653 -3.59381 921
-6.2537 -8.26385 -3.55623 766
-6.2606 -8.27297 -3.52396 534
-6.00585 -7.93633 -3.34029 558
-5.99428 -7.92105 -3.29898 588
-5.99166 -7.91757 -3.26295 614
-5.97085 -7.89008 -3.21682 617
-5.95899 -7.87441 -3.17597 598
-6.18282 -8.17019 -3.26485 492
-6.18917 -8.17858 -3.23296 546
-6.19546 -8.18689 -3.20104 705
-6.20169 -8.19512 -3.16908 1122
-6.20785 -8.20326 -3.13709 1304
-6.21396 -8.21133 -3.10507 919
-6.00102 -7.92995 -2.96025 530
-6.24425 -8.25136 -3.05023 460
-5.99422 -7.92096 -2.88913 554
-5.99985 -7.9284 -2.85823 420
-6.26188 -8.27466 -2.9535 258
-6.2493 -8.25804 -2.91228 273
-6.25498 -8.26554 -2.88004 330
-6.2606 -8.27296 -2.84777 375
-7.02914 -9.28855 -3.17368 407
-6.25324 -8.26324 -2.77462 396
-6.24945 -8.25823 -2.73814 370
-6.93685 -9.16658 -3.01459 341
-6.94271 -9.17433 -2.97876 396
-6.90235 -9.121 -2.92253 331
-6.88032 -9.09189 -2.8748 493
-6.88592 -9.09929 -2.83926 723
-6.89146 -9.10661 -2.8037 866
-6.89693 -9.11383 -2.76811 793
-6.85598 -9.05972 -2.71332 652
-6.86127 -9.06672 -2.67792 544
-5.67807 -7.50319 -2.1642 734
-5.68233 -7.50882 -2.13495 876
-5.68653 -7.51437 -2.10568 873
-5.68137 -7.50755 -2.07279 791
-5.68545 -7.51295 -2.04353 657
-6.65866 -8.79897 -2.37758 744
-6.65399 -8.7928 -2.33977 784
-6.65857 -8.79886 -2.30542 861
-6.63508 -8.76782 -2.261 1047
-6.63952 -8.77368 -2.22675 1028
-6.63454 -8.7671 -2.18923 1073
-6.62948 -8.76042 -2.15178 1265
-6.47453 -8.55567 -2.06398 1051
-6.48796 -8.57341 -2.03367 1044
-6.49197 -8.57871 -2.00019 1053
-5.68916 -7.51785 -1.70823 1073
-5.72071 -7.55954 -1.68779 1279
-5.73346 -7.57638 -1.66123 1849
-5.72736 -7.56832 -1.62884 2352
-5.7306 -7.5726 -1.59933 2137
-5.74319 -7.58924 -1.57257 2009
-5.74632 -7.59338 -1.54298 2350
-5.7494 -7.59744 -1.51338 2033
-5.79953 -7.6637 -1.49682 1493
-5.80252 -7.66764 -1.46694 1719
-5.81488 -7.68398 -1.43955 2018
-5.8272 -7.70026 -1.41206 2181
-5.83947 -7.71647 -1.38445 2229
-5.84224 -7.72013 -1.35436 2101
-6.27973 -8.29825 -1.43082 1819
-6.29205 -8.31453 -1.4007 2520
-6.28539 -8.30573 -1.36603 3062
-6.27866 -8.29684 -1.33144 2830
-6.20559 -8.20027 -1.28211 2229
-6.20816 -8.20367 -1.25011 2996
-6.21068 -8.207 -1.21809 3006
-6.22261 -8.22277 -1.18804 2448
-6.06379 -8.01289 -1.12329 2013
-6.05657 -8.00336 -1.09016 2289
-6.05879 -8.00628 -1.05893 2209
-6.06094 -8.00913 -1.0277 2170
-6.07253 -8.02445 -0.998179 2246
-6.11257 -8.07736 -0.973567 2282
-6.10506 -8.06743 -0.94043 2315
-6.09748 -8.05742 -0.907381 2761
-6.09935 -8.05988 -0.875947 2990
-6.11066 -8.07484 -0.845977 2421
-6.11241 -8.07715 -0.814474 1902
-6.1141 -8.07938 -0.782962 1791
-6.11573 -8.08153 -0.751441 1760
-6.1173 -8.0836 -0.719911 1505
-6.12833 -8.09818 -0.6896 1074
-6.17742 -8.16305 -0.663887 909
-6.32178 -8.35381 -0.648935 796
-6.34221 -8.38081 -0.618484 826
-6.34353 -8.38255 -0.585772 891
-6.96464 -9.20331 -0.616572 1013
-6.96595 -9.20503 -0.58061 1154
-6.96718 -9.20667 -0.544641 1151
-7.0256 -9.28387 -0.513633 1232
-7.02672 -9.28534 -0.477353 1171
-7.0373 -9.29933 -0.441795 1044
-6.85691 -9.06095 -0.392569 1084
-6.85779 -9.06212 -0.35717 1196
-6.85861 -9.06319 -0.321767 1146
-6.8498 -9.05156 -0.285832 1066
-6.83138 -9.02722 -0.249514 1035
-6.83199 -9.02802 -0.21425 1026
-6.82298 -9.01612 -0.178603 1130
-6.82346 -9.01675 -0.143383 1303
-6.82387 -9.01729 -0.108161 1372
-6.82421 -9.01774 -0.0729364 1270
-6.82448 -9.0181 -0.0377104 1045
-6.85335 -9.05625 -0.00287182 1009
-6.85349 -9.05644 0.032506 1106
-6.85357 -9.05654 0.0678844 1291
-6.85357 -9.05654 0.103263 1358
-6.85351 -9.05646 0.138641 1141
-6.84383 -9.04367 0.173899 955
-6.97739 -9.22016 0.211604 812
-7.82739 -10.3434 0.267187 716
-7.82701 -10.3429 0.30765 776
-7.83611 -10.3549 0.348432 767
-7.84513 -10.3668 0.389309 748
-7.74901 -10.2398 0.425672 805
-7.73878 -10.2263 0.465256 879
-7.73803 -10.2253 0.505256 801
-7.62262 -10.0728 0.538424 1001
-7.61218 -10.059 0.577198 1044
-7.61121 -10.0577 0.616536 949
-7.61017 -10.0563 0.655869 936
-7.64723 -10.1053 0.698269 958
-7.64603 -10.1037 0.73779 905
-7.64476 -10.102 0.777304 885
-7.64342 -10.1003 0.816811 859
-7.64199 -10.0984 0.856311 937
-7.6405 -10.0964 0.895803 985
-7.70565 -10.1825 0.942758 961
-7.70399 -10.1803 0.982583 1013
-7.70226 -10.178 1.0224 1147
-7.70044 -10.1756 1.0622 1284
-7.7176 -10.1983 1.10453 1295
-7.71563 -10.1957 1.14442 1398
-7.71359 -10.193 1.18429 1395
-7.71147 -10.1902 1.22416 1221
-7.69976 -10.1747 1.26255 1088
-7.65944 -10.1214 1.29628 871
-7.65711 -10.1184 1.33586 674
-7.6547 -10.1152 1.37543 575
-7.65222 -10.1119 1.41499 465
-7.69715 -10.1713 1.4631 417
-7.6945 -10.1678 1.50287 388
-7.70126 -10.1767 1.54445 378
-7.69846 -10.173 1.58425 378
-7.72403 -10.2068 1.62977 630
-2.89572 -3.78761 -3.46655 260
-2.93311 -3.83652 -3.49031 292
-2.93995 -3.84546 -3.47548 325
-2.93907 -3.84431 -3.45111 292
-2.95353 -3.86324 -3.44573 281
-2.96029 -3.87207 -3.4308 275
-3.19809 -4.18312 -3.64665 281
-3.18964 -4.17206 -3.6119 333
-3.19671 -4.18131 -3.59575 382
-3.20375 -4.19051 -3.57956 422
-3.21075 -4.19968 -3.56333 403
-3.21773 -4.2088 -3.54707 389
-3.22467 -4.21789 -3.53077 350
-3.38956 -4.43356 -3.69505 331
-3.39679 -4.44301 -3.67786 347
-3.40398 -4.45242 -3.66063 362
-3.41114 -4.46179 -3.64336 333
-3.53778 -4.62743 -3.75906 357
-3.55311 -4.64749 -3.74992 372
-3.54444 -4.63614 -3.71431 369
-3.54369 -4.63516 -3.68757 350
-3.5509 -4.64459 -3.66958 341
-3.55807 -4.65398 -3.65155 353
-3.57328 -4.67387 -3.6421 293
-3.70976 -4.85238 -3.76116 287
-3.72521 -4.87259 -3.75084 337
-3.73254 -4.88218 -3.7319 375
-4.03262 -5.27469 -4.01708 408
-4.04046 -5.28494 -3.99655 486
-4.04826 -5.29515 -3.97598 504
-4.29328 -5.61563 -4.1967 471
-4.29326 -5.61561 -4.16654 489
-4.30139 -5.62624 -4.14465 455
-4.30124 -5.62605 -4.11453 406
-4.30927 -5.63654 -4.09261 395
-4.47419 -5.85226 -4.2247 354
-4.60655 -6.02539 -4.32286 483
-4.62327 -6.04725 -4.30737 526
-4.57352 -5.98218 -4.22792 545
-4.58176 -5.99296 -4.20458 614
-4.58995 -6.00368 -4.1812 576
-4.81524 -6.29836 -4.36187 593
-4.82374 -6.30947 -4.33728 613
-4.8238 -6.30956 -4.30488 558
-5.12606 -6.70491 -4.55043 520
-5.13491 -6.71649 -4.52422 516
-5.26168 -6.88229 -4.60482 475
-5.27063 -6.89401 -4.57791 604
-5.27954 -6.90566 -4.55095 674
-5.34768 -6.99479 -4.57645 571
-5.37355 -7.02863 -4.56401 684
-5.39093 -7.05136 -4.54393 696
-5.4253 -7.09632 -4.53845 664
-5.43413 -7.10787 -4.51069 755
-5.51977 -7.21988 -4.54841 788
-5.52862 -7.23146 -4.52016 850
-5.54598 -7.25417 -4.49905 783
-5.56332 -7.27684 -4.47782 534
-5.68376 -7.43439 -4.54167 606
-5.6926 -7.44595 -4.51257 648
-5.71862 -7.47998 -4.49745 624
-5.72737 -7.49143 -4.46817 576
-5.71877 -7.48018 -4.42499 484
