-5.92889 0.988498 -2.70103 649
-5.92341 0.987583 -2.67575 710
-5.93197 0.989011 -2.65722 803
-5.96882 0.995156 -2.65198 886
-5.99151 0.998938 -2.63991 943
-6.07103 1.0122 -2.65398 1074
-6.07953 1.01361 -2.63499 1088
-6.28752 1.04829 -2.70656 773
-6.22481 1.03783 -2.65474 948
-6.21901 1.03687 -2.62888 1028
-6.24175 1.04066 -2.61574 803
-6.50812 1.08507 -2.70939 545
-6.53114 1.08891 -2.69524 636
-6.52539 1.08795 -2.66858 751
-6.53393 1.08937 -2.64813 849
-6.54241 1.09079 -2.62766 818
-6.65182 1.10903 -2.64957 681
-6.7181 1.12008 -2.65277 654
-6.75552 1.12632 -2.64364 706
-6.83641 1.1398 -2.65205 830
-6.8739 1.14605 -2.64236 914
-6.9114 1.15231 -2.63245 1003
-6.91983 1.15371 -2.61077 769
-7.07376 1.17938 -2.64641 519
-7.11138 1.18565 -2.63559 584
-7.17819 1.19679 -2.63583 605
-7.20123 1.20063 -2.6189 538
-7.34126 1.22398 -2.64622 435
-7.34973 1.22539 -2.62317 545
-7.40211 1.23412 -2.61645 466
-7.4692 1.24531 -2.61483 386
-7.62452 1.2712 -2.64498 427
-7.64769 1.27507 -2.62633 386
-7.6561 1.27647 -2.6023 274
-7.85611 1.30981 -2.64609 273
-7.99742 1.33337 -2.66794 265
-8.02073 1.33726 -2.64792 272
-8.36337 1.39439 -2.70812 273
-8.38685 1.3983 -2.68678 268
-8.62055 1.43727 -2.67529 252
-8.61421 1.43621 -2.64335 252
-3.66678 0.626485 -2.70081 255
-3.70013 0.632183 -2.70885 274
-3.7088 0.633665 -2.69742 312
-3.80432 0.649985 -2.75316 321
-3.81313 0.65149 -2.7414 365
-3.8219 0.652988 -2.72961 386
-3.83063 0.654481 -2.71779 437
-3.91451 0.668812 -2.76259 429
-3.93591 0.672468 -2.75987 499
-3.94474 0.673976 -2.74769 546
-3.96615 0.677634 -2.7448 550
-3.98758 0.681295 -2.7418 625
-3.99635 0.682794 -2.72945 629
-4.00508 0.684286 -2.71708 604
-4.06471 0.694473 -2.7413 575
-4.07348 0.695971 -2.72871 586
-4.08221 0.697463 -2.71609 679
-4.11653 0.703328 -2.72151 731
-4.12524 0.704816 -2.70875 629
-4.14678 0.708496 -2.70492 594
-4.15544 0.709975 -2.69206 601
-4.16406 0.711448 -2.67918 572
-4.18559 0.715127 -2.6751 509
-4.40189 0.752082 -2.8027 460
-4.41085 0.753613 -2.78903 590
-4.41976 0.755136 -2.77533 666
-4.42864 0.756652 -2.7616 697
-4.46365 0.762635 -2.76509 635
-4.48561 0.766387 -2.7598 607
-4.50758 0.77014 -2.75439 545
-4.56908 0.780647 -2.77436 540
-4.57795 0.782162 -2.76015 644
-4.58677 0.78367 -2.74592 665
-4.6088 0.787435 -2.74003 664
-4.63084 0.7912 -2.73402 553
-4.63959 0.792694 -2.71962 436
-4.64829 0.79418 -2.70518 392
-4.68365 0.800222 -2.70712 444
-4.70569 0.803987 -2.7007 567
-4.71433 0.805464 -2.68606 660
-4.73635 0.809227 -2.67946 696
-4.81219 0.822185 -2.70485 742
-4.83433 0.825966 -2.69785 755
-4.88347 0.834362 -2.70661 630
-4.98682 0.85202 -2.74668 501
-4.98205 0.851205 -2.72328 444
-4.93645 0.843415 -2.67652 409
-5.04022 0.861144 -2.7155 439
-5.04891 0.862628 -2.69979 550
-5.05754 0.864104 -2.68405 572
-5.13449 0.877251 -2.70646 550
-5.14315 0.87873 -2.69045 571
-5.28895 0.903641 -2.74989 608
-5.29774 0.905143 -2.73338 718
-5.30648 0.906636 -2.71684 724
-5.32896 0.910476 -2.7077 632
-5.33762 0.911956 -2.69106 539
-5.53992 0.94652 -2.77699 504
-5.49336 0.938565 -2.73054 473
-5.52985 0.9448 -2.72786 461
-5.55248 0.948665 -2.71778 512
-5.58902 0.954908 -2.71473 540
-5.65349 0.965923 -2.72568 588
-5.67617 0.969799 -2.71507 619
-5.71283 0.976063 -2.71136 551
-5.87564 1.00388 -2.77018 675
-5.89853 1.00779 -2.75873 706
-5.90734 1.0093 -2.74027 669
-5.90202 1.00839 -2.71495 680
-5.9248 1.01228 -2.70327 730
-5.96168 1.01858 -2.69823 855
-5.97031 1.02005 -2.67957 939
-6.04968 1.03362 -2.69417 958
-6.0583 1.03509 -2.67523 906
-6.26568 1.07052 -2.74818 794
-6.20335 1.05987 -2.69595 964
-6.19773 1.05891 -2.67004 1128
-6.22053 1.0628 -2.65706 976
-6.24331 1.0667 -2.64396 611
-6.4949 1.10968 -2.73214 529
-6.50363 1.11117 -2.71178 676
-6.5123 1.11266 -2.69138 820
-6.57835 1.12394 -2.69577 811
-6.58696 1.12541 -2.67514 692
-6.69631 1.14409 -2.69724 553
-6.73376 1.15049 -2.68836 652
-6.77123 1.15689 -2.67926 837
-6.8087 1.1633 -2.66996 922
-6.88961 1.17712 -2.67821 898
-6.89817 1.17858 -2.65658 697
-7.06627 1.2073 -2.69907 575
-7.08943 1.21126 -2.68267 562
-7.18528 1.22764 -2.69483 568
-7.19389 1.22911 -2.67226 534
-7.24617 1.23804 -2.6666 426
-7.34229 1.25446 -2.67742 467
-7.42392 1.26841 -2.68211 471
-7.44713 1.27237 -2.66428 401
-7.6168 1.30136 -2.70091 378
-7.62542 1.30284 -2.67696 319
-7.78082 1.32939 -2.70663 263
-7.97464 1.3625 -2.7209 274
-7.98333 1.36399 -2.6958 254
-8.34008 1.42494 -2.76349 268
-8.36368 1.42897 -2.74231 281
-8.46121 1.44564 -2.74618 260
-8.45516 1.4446 -2.71454 252
-8.56763 1.46382 -2.72249 285
-8.57631 1.4653 -2.6955 268
-8.9381 1.52711 -2.69071 276
-3.70258 0.647575 -2.67465 255
-3.72358 0.651248 -2.67276 284
-3.84432 0.672366 -2.7469 309
-3.82811 0.669532 -2.71605 364
-3.8368 0.671051 -2.7042 393
-3.84546 0.672565 -2.69233 453
-3.92957 0.687275 -2.73656 428
-3.95093 0.691012 -2.73371 491
-3.95967 0.692541 -2.72147 534
-3.98105 0.69628 -2.71843 551
-4.00244 0.700021 -2.71529 652
-4.01113 0.70154 -2.70289 648
-4.01978 0.703053 -2.69046 625
-4.07952 0.713501 -2.71429 647
-4.0882 0.71502 -2.70163 657
-4.09684 0.716532 -2.68896 771
-4.13118 0.722537 -2.69415 832
-4.1398 0.724045 -2.68133 733
-4.1613 0.727806 -2.67735 709
-4.16987 0.729304 -2.66444 695
-4.1784 0.730796 -2.6515 636
-4.18688 0.73228 -2.63854 549
-4.22139 0.738315 -2.64294 468
-4.42572 0.774052 -2.75972 621
-4.43454 0.775595 -2.74596 716
-4.44332 0.777131 -2.73217 748
-4.4652 0.780956 -2.72689 656
-4.50025 0.787086 -2.72999 603
-4.52217 0.79092 -2.72444 551
-4.58375 0.80169 -2.744 558
-4.59252 0.803225 -2.72973 699
-4.60125 0.804751 -2.71544 741
-4.62322 0.808595 -2.7094 748
-4.64521 0.81244 -2.70324 602
-4.65386 0.813952 -2.68878 420
-4.66246 0.815457 -2.6743 328
-4.7112 0.823982 -2.68411 394
-4.71979 0.825484 -2.66943 553
-4.72833 0.826977 -2.65473 666
-4.73682 0.828463 -2.64001 697
-4.82625 0.844103 -2.67287 724
-4.87536 0.852693 -2.68151 782
-4.89748 0.856562 -2.67417 749
-4.94674 0.865178 -2.68232 645
-4.98251 0.871433 -2.68242 569
-4.99109 0.872934 -2.66688 478
-5.04054 0.881583 -2.67434 482
-5.0491 0.883079 -2.65861 554
-5.0576 0.884567 -2.64286 546
-5.14833 0.900435 -2.67235 566
-5.15688 0.90193 -2.65628 559
-5.22041 0.913042 -2.67001 566
-5.29786 0.926588 -2.69077 617
-5.32027 0.930507 -2.68159 662
-5.38415 0.94168 -2.69427 657
-5.35121 0.93592 -2.6556 574
-5.52618 0.966521 -2.72571 514
-5.54879 0.970475 -2.71562 461
-5.57138 0.974427 -2.70542 448
-5.58003 0.97594 -2.68799 513
-5.60259 0.979884 -2.6776 553
-5.68107 0.99361 -2.69514 587
-5.70369 0.997566 -2.68433 584
-5.72629 1.00152 -2.67341 542
-5.88937 1.03004 -2.73115 686
-5.91217 1.03403 -2.71954 741
-5.92086 1.03555 -2.70103 715
-5.9436 1.03953 -2.68923 677
-5.96633 1.0435 -2.67732 681
-5.98904 1.04747 -2.66528 842
-6.0826 1.06384 -2.68617 916
-6.07699 1.06286 -2.66054 902
-6.07129 1.06186 -2.63499 805
-6.26476 1.0957 -2.70009 832
-6.24488 1.09222 -2.66759 988
-6.21058 1.08622 -2.62888 1194
-6.23329 1.09019 -2.61574 1113
-6.25597 1.09416 -2.60249 732
-6.33596 1.10815 -2.61409 497
-6.5309 1.14224 -2.67478 621
-6.52507 1.14123 -2.64813 730
-6.5911 1.15277 -2.65208 729
-6.59958 1.15426 -2.63139 692
-6.60799 1.15573 -2.61068 585
-6.76081 1.18246 -2.6496 540
-6.78374 1.18647 -2.63429 843
-6.80665 1.19047 -2.61887 901
-6.90203 1.20716 -2.63245 656
-6.96853 1.21879 -2.6339 574
-7.09325 1.2406 -2.65788 587
-7.10174 1.24208 -2.63559 577
-7.1976 1.25885 -2.64712 587
-7.20606 1.26033 -2.62449 543
-7.24366 1.26691 -2.61293 419
-7.42752 1.29906 -2.65617 475
-7.436 1.30055 -2.63281 521
-7.45907 1.30458 -2.61483 435
-7.4234 1.29834 -2.57529 333
-7.46102 1.30492 -2.56257 303
-7.80751 1.36552 -2.66023 256
-7.97184 1.39426 -2.66277 251
-7.96558 1.39317 -2.63254 262
-8.36068 1.46227 -2.6818 266
-8.47297 1.48191 -2.69 262
-8.46673 1.48082 -2.65841 307
-8.53461 1.49269 -2.65108 303
-8.55794 1.49677 -2.62897 283
-8.58122 1.50084 -2.60674 251
-8.94917 1.5652 -2.63137 282
-14.1354 2.47227 -2.52061 278
-3.68634 0.659733 -2.72025 287
-3.70737 0.663497 -2.71853 311
-3.71606 0.665052 -2.70706 323
-3.78669 0.677692 -2.74356 332
-3.80788 0.681485 -2.7414 387
-3.81664 0.683052 -2.72961 419
-3.82536 0.684614 -2.71779 480
-3.83405 0.686168 -2.70595 444
-3.90541 0.698939 -2.74107 503
-3.9016 0.698257 -2.71961 549
-3.96069 0.708833 -2.7448 534
-3.98209 0.712662 -2.7418 650
-3.99085 0.71423 -2.72945 649
-4.063 0.727143 -2.76307 654
-4.05911 0.726447 -2.7413 691
-4.05513 0.725734 -2.71959 717
-4.07659 0.729575 -2.71609 843
-4.09807 0.733419 -2.71248 906
-4.11957 0.737266 -2.70875 809
-4.14108 0.741116 -2.70492 797
-4.14972 0.742663 -2.69206 762
-4.15833 0.744203 -2.67918 683
-4.16689 0.745736 -2.66627 580
-4.20135 0.751902 -2.6709 500
-4.40478 0.78831 -2.78903 610
-4.41368 0.789903 -2.77533 722
-4.42254 0.791489 -2.7616 756
-4.43136 0.793067 -2.74785 642
-4.47944 0.801672 -2.7598 580
-4.48825 0.803249 -2.74586 571
-4.51018 0.807172 -2.74039 566
-4.55847 0.815815 -2.7517 700
-4.58046 0.819751 -2.74592 770
-4.60246 0.823689 -2.74003 804
-4.62447 0.827627 -2.73402 682
-4.6332 0.82919 -2.71962 516
-4.64189 0.830745 -2.70518 405
-4.6772 0.837065 -2.70712 408
-4.68585 0.838613 -2.69255 491
-4.69446 0.840152 -2.67795 570
-4.72984 0.846484 -2.67946 607
-4.84588 0.867252 -2.72893 696
-4.89497 0.876038 -2.73776 761
-4.9172 0.880016 -2.73043 767
-4.92592 0.881577 -2.71509 669
-4.97519 0.890395 -2.72328 549
-5.01101 0.896805 -2.72338 459
-5.01971 0.898361 -2.70774 468
-5.02835 0.899909 -2.69207 534
-5.09147 0.911205 -2.70709 566
-5.12743 0.91764 -2.70646 614
-5.13607 0.919187 -2.69045 586
-5.13097 0.918273 -2.66686 543
-5.27673 0.94436 -2.72588 555
-5.35417 0.958219 -2.74668 685
-5.37671 0.962253 -2.73736 788
-5.38545 0.963817 -2.72055 759
-5.40795 0.967845 -2.71104 608
-5.4858 0.981777 -2.73054 466
-5.54997 0.993261 -2.74234 437
-5.5726 0.997312 -2.73217 507
-5.63695 1.00883 -2.74333 551
-5.67356 1.01538 -2.7399 575
-5.69626 1.01944 -2.72919 556
-5.70497 1.021 -2.71136 521
-5.86756 1.0501 -2.77018 651
-5.89041 1.05419 -2.75873 734
-5.89922 1.05576 -2.74027 724
-5.92202 1.05985 -2.72862 655
-5.95889 1.06644 -2.72365 672
-6.00988 1.07557 -2.72521 830
-6.06094 1.08471 -2.72648 948
-6.0555 1.08373 -2.70082 902
-6.06412 1.08528 -2.68184 785
-6.21451 1.11219 -2.72848 866
-6.22322 1.11375 -2.70899 1076
-6.20342 1.11021 -2.67652 1279
-6.21197 1.11174 -2.65706 1203
-6.23472 1.11581 -2.64396 780
-6.31458 1.1301 -2.65609 481
-6.50899 1.16489 -2.71807 559
-6.50334 1.16388 -2.69138 596
-6.5693 1.17569 -2.69577 584
-6.59226 1.1798 -2.68129 668
-6.58644 1.17875 -2.65448 688
-6.59492 1.18027 -2.6338 575
-6.77633 1.21274 -2.68528 823
-6.7849 1.21427 -2.66399 859
-6.7934 1.21579 -2.64267 593
-7.0334 1.25875 -2.71536 546
-7.05655 1.26289 -2.69907 564
-7.07967 1.26703 -2.68267 590
-7.16086 1.28156 -2.68909 579
-7.16944 1.28309 -2.66657 535
-7.38182 1.3211 -2.72305 417
-7.40508 1.32526 -2.70542 508
-7.41371 1.32681 -2.68211 538
-7.42227 1.32834 -2.65878 470
-7.44538 1.33248 -2.64088 349
-7.45381 1.33399 -2.61744 281
-7.99567 1.43096 -2.67586 250
-8.44353 1.51111 -2.71454 326
-8.51141 1.52326 -2.70767 324
-8.53487 1.52746 -2.68572 298
-14.109 2.52505 -2.61437 270
-3.69052 0.676514 -2.76256 269
-3.69934 0.678131 -2.75113 318
-3.69583 0.677487 -2.72997 356
-3.70455 0.679085 -2.71853 392
-3.72559 0.682942 -2.7167 391
-3.73426 0.684532 -2.70516 394
-3.79257 0.695219 -2.73184 413
-3.81373 0.6991 -2.72961 436
-3.82245 0.700698 -2.71779 498
-3.83113 0.702289 -2.70595 466
-3.90244 0.71536 -2.74107 512
-3.89863 0.714661 -2.71961 560
-3.89472 0.713946 -2.69821 524
-3.99168 0.731719 -2.75108 634
-4.00046 0.733328 -2.73869 646
-4.05991 0.744226 -2.76307 675
-4.05602 0.743514 -2.7413 713
-4.05204 0.742784 -2.71959 750
-4.07349 0.746715 -2.71609 871
-4.09495 0.75065 -2.71248 927
-4.11643 0.754587 -2.70875 831
-4.13792 0.758528 -2.70492 823
-4.15944 0.762471 -2.70097 766
-4.15516 0.761687 -2.67918 667
-4.16372 0.763256 -2.66627 560
-4.19815 0.769567 -2.6709 490
-4.38844 0.80445 -2.78029 627
-4.39731 0.806076 -2.76663 750
-4.40614 0.807694 -2.75294 768
-4.41492 0.809305 -2.73923 643
-4.42367 0.810907 -2.72548 546
-4.48484 0.82212 -2.74586 572
-4.50674 0.826136 -2.74039 622
-4.555 0.834981 -2.7517 722
-4.57697 0.83901 -2.74592 806
-4.59896 0.84304 -2.74003 866
-4.62095 0.847071 -2.73402 762
-4.62968 0.848671 -2.71962 605
-4.63836 0.850262 -2.70518 470
-4.66032 0.854288 -2.69892 439
-4.68228 0.858315 -2.69255 498
-4.69088 0.859891 -2.67795 576
-4.84683 0.888478 -2.75208 609
-4.88246 0.89501 -2.753 774
-4.89125 0.89662 -2.73776 873
-4.91346 0.900691 -2.73043 903
-4.92217 0.902288 -2.71509 792
-4.93084 0.903877 -2.69972 643
-4.96655 0.910423 -2.69995 528
-4.98874 0.914491 -2.6922 524
-5.02452 0.921051 -2.69207 577
-5.06036 0.92762 -2.69173 621
-5.10988 0.936698 -2.69883 664
-5.11849 0.938277 -2.68286 615
-5.11337 0.937337 -2.65931 540
-5.259 0.964033 -2.71837 484
-5.35009 0.980732 -2.74668 686
-5.37261 0.98486 -2.73736 873
-5.38135 0.986461 -2.72055 879
-5.40383 0.990583 -2.71104 754
-5.41248 0.992169 -2.69413 594
-5.42108 0.993745 -2.67719 529
-5.58223 1.02329 -2.73936 518
-5.63266 1.03253 -2.74333 516
-5.66924 1.03924 -2.7399 522
-5.69192 1.04339 -2.72919 506
-5.70063 1.04499 -2.71136 482
-5.86309 1.07477 -2.77018 588
-5.88593 1.07896 -2.75873 692
-5.90875 1.08314 -2.74715 688
-5.91751 1.08474 -2.72862 609
-5.99655 1.09923 -2.74402 689
-6.03348 1.106 -2.73871 839
-6.05632 1.11019 -2.72648 955
-6.05089 1.1092 -2.70082 892
-6.05951 1.11077 -2.68184 787
-6.18144 1.13313 -2.71535 891
-6.1901 1.13471 -2.69595 1149
-6.18448 1.13368 -2.67004 1368
-6.20724 1.13786 -2.65706 1254
-6.24422 1.14464 -2.65034 799
-6.48103 1.18804 -2.73214 449
-6.51832 1.19488 -2.72436 510
-6.54132 1.1991 -2.71012 527
-6.56429 1.20331 -2.69577 523
-6.60159 1.21014 -2.68745 712
-6.58142 1.20645 -2.65448 768
-6.58989 1.208 -2.6338 632
-6.77117 1.24123 -2.68528 741
-6.79416 1.24544 -2.66996 801
-6.80267 1.24701 -2.64859 678
-6.81112 1.24855 -2.6272 543
-7.10909 1.30318 -2.7224 514
-7.07428 1.29679 -2.68267 568
-7.15541 1.31167 -2.68909 538
-7.16398 1.31324 -2.66657 488
-7.37619 1.35214 -2.72305 527
-7.39944 1.3564 -2.70542 563
-7.40806 1.35798 -2.68211 580
-7.40201 1.35687 -2.65327 527
-7.45433 1.36646 -2.64633 395
-7.46277 1.36801 -2.62285 283
-7.84011 1.43718 -2.67873 266
-8.0043 1.46728 -2.68103 278
-8.01284 1.46884 -2.65579 254
-8.45188 1.54932 -2.71953 293
-8.50493 1.55905 -2.70767 313
-8.52837 1.56334 -2.68572 280
-3.72465 0.697696 -2.79022 268
-3.72129 0.697067 -2.76893 278
-3.73013 0.698722 -2.75739 319
-3.73893 0.70037 -2.74584 366
-3.73534 0.699698 -2.72461 392
-3.73166 0.699009 -2.70344 437
-3.7527 0.70295 -2.70143 439
-3.76133 0.704566 -2.6898 438
-3.79485 0.710846 -2.6971 432
-3.82846 0.717141 -2.7042 443
-3.83709 0.718758 -2.69233 509
-3.84569 0.720368 -2.68043 479
-3.90458 0.731401 -2.70576 517
-3.90061 0.730656 -2.68437 553
-3.90918 0.732262 -2.67226 506
-4.0064 0.750474 -2.72449 587
-4.0151 0.752102 -2.71204 606
-4.08739 0.765644 -2.74513 650
-4.07064 0.762506 -2.71429 685
-4.06652 0.761735 -2.6926 737
-4.08793 0.765745 -2.68896 853
-4.09651 0.767353 -2.67625 905
-4.14366 0.776184 -2.69024 821
-4.16514 0.780208 -2.68622 815
-4.17372 0.781815 -2.67327 756
-4.18226 0.783414 -2.66029 638
-4.19075 0.785005 -2.64728 527
-4.36824 0.818252 -2.74735 514
-4.39003 0.822335 -2.7424 634
-4.39878 0.823973 -2.72872 769
-4.40749 0.825604 -2.71502 799
-4.41616 0.827227 -2.70129 661
-4.43791 0.831303 -2.69602 559
-4.49917 0.842777 -2.71599 576
-4.50783 0.8444 -2.70196 681
-4.52967 0.848491 -2.69628 764
-4.59124 0.860023 -2.71544 832
-4.61317 0.864131 -2.7094 915
-4.6351 0.868241 -2.70324 861
-4.64373 0.869857 -2.68878 753
-4.65231 0.871464 -2.6743 625
-4.67422 0.875567 -2.66789 535
-4.68273 0.877163 -2.6533 502
-4.71804 0.883776 -2.65473 525
-4.88782 0.915579 -2.73576 620
-4.91001 0.919736 -2.72843 835
-4.91872 0.921366 -2.71308 977
-4.92737 0.922988 -2.69772 1038
-4.93598 0.9246 -2.68232 926
-4.93098 0.923663 -2.65913 771
-4.93947 0.925253 -2.64372 615
-4.98874 0.934483 -2.65131 563
-5.03811 0.943731 -2.65861 572
-3.25729 0.61015 -1.64878 720
-3.26266 0.611156 -1.63874 960
-3.26799 0.612155 -1.62869 1008
-3.2733 0.613149 -1.61861 820
-3.27857 0.614137 -1.60853 621
-5.36379 1.00474 -2.71106 647
-5.40003 1.01153 -2.70892 866
-5.39485 1.01056 -2.68472 907
-5.40342 1.01216 -2.66783 811
-5.4258 1.01635 -2.65809 661
-5.44817 1.02054 -2.64824 587
-5.59571 1.04818 -2.7022 554
-5.60433 1.04979 -2.68466 551
-5.58499 1.04617 -2.65306 602
-5.60743 1.05038 -2.64253 553
-5.69984 1.06769 -2.66649 488
-5.87656 1.10079 -2.73115 485
-5.8993 1.10505 -2.71954 586
-5.92204 1.10931 -2.70782 606
-5.97291 1.11884 -2.70946 581
-5.98155 1.12046 -2.69071 718
-6.04662 1.13264 -2.69854 854
-6.06937 1.1369 -2.68617 936
-6.07794 1.13851 -2.66711 896
-6.08644 1.1401 -2.64802 835
-6.19432 1.16031 -2.6742 915
-6.18862 1.15924 -2.64832 1184
-6.19707 1.16083 -2.62888 1408
-6.21972 1.16507 -2.61574 1279
-6.24236 1.16931 -2.60249 795
-6.4938 1.21641 -2.689 466
-6.54533 1.22606 -2.68717 509
-6.5539 1.22767 -2.66659 558
-6.57676 1.23195 -2.65208 575
-6.61398 1.23892 -2.64351 777
-6.62241 1.2405 -2.6227 780
-6.76052 1.26637 -2.65557 615
-6.78342 1.27066 -2.64021 680
-6.80629 1.27494 -2.62474 688
-6.82914 1.27922 -2.60914 662
-6.83746 1.28078 -2.58765 562
-7.19386 1.34754 -2.70376 476
-7.17343 1.34372 -2.66972 505
-7.10924 1.33169 -2.61891 465
-7.33597 1.37416 -2.68044 485
-7.37367 1.38122 -2.66841 581
-7.39676 1.38555 -2.65067 565
-7.40521 1.38713 -2.62736 570
-7.41359 1.3887 -2.60402 540
-7.48047 1.40123 -2.60209 415
-7.56207 1.41652 -2.60507 341
-7.9545 1.49002 -2.66277 286
-7.97771 1.49437 -2.64279 294
-8.00087 1.49871 -2.62269 309
-8.02399 1.50304 -2.60247 295
-3.7038 0.709326 -2.81494 319
-3.72495 0.713377 -2.81329 331
-3.70948 0.710414 -2.78215 374
-3.71835 0.712112 -2.77065 428
-3.7149 0.711452 -2.7494 457
-3.72367 0.713131 -2.73788 491
-3.7324 0.714803 -2.72634 479
-3.72872 0.714099 -2.70516 477
-3.73735 0.715752 -2.6936 459
-3.80807 0.729296 -2.72961 451
-3.81678 0.730963 -2.71779 518
-3.85042 0.737405 -2.72483 490
-3.87162 0.741465 -2.72227 541
-3.8803 0.743128 -2.71025 582
-3.88894 0.744783 -2.69821 519
-3.98575 0.763324 -2.75108 518
-3.99452 0.765003 -2.73869 542
-4.06654 0.778796 -2.77226 596
-4.07538 0.780488 -2.75962 618
-4.04603 0.774867 -2.71959 675
-4.06744 0.778968 -2.71609 785
-4.0761 0.780627 -2.70344 837
-4.12312 0.789631 -2.71774 768
-4.14461 0.793747 -2.71387 774
-4.15326 0.795404 -2.70097 699
-4.16188 0.797054 -2.68805 572
-4.32536 0.828363 -2.78103 486
-4.33422 0.83006 -2.76756 595
-4.356 0.834231 -2.7628 671
-4.3648 0.835917 -2.74922 806
-4.38658 0.840088 -2.74428 847
-4.39533 0.841763 -2.73061 704
-4.40403 0.84343 -2.71691 591
-4.47818 0.85763 -2.74586 590
-4.48693 0.859306 -2.73189 764
-4.50879 0.863492 -2.72635 877
-4.54383 0.870203 -2.7291 870
-4.59213 0.879453 -2.74003 944
-4.61409 0.883659 -2.73402 914
-4.62281 0.885328 -2.71962 810
-4.63147 0.886988 -2.70518 680
-4.66671 0.893735 -2.70712 580
-4.67534 0.895388 -2.69255 514
-4.69728 0.89959 -2.68606 517
-4.87978 0.934541 -2.77628 638
-4.88862 0.936235 -2.76103 872
-4.89742 0.937919 -2.74574 1031
-4.91962 0.942171 -2.73837 1130
-3.18957 0.610845 -1.70436 1156
-3.19511 0.611905 -1.69454 1391
-3.21414 0.615549 -1.6925 1381
-3.21963 0.616602 -1.68259 1344
-3.2251 0.617649 -1.67267 1129
-3.23053 0.618689 -1.66273 869
-3.23594 0.619724 -1.65277 932
-3.24131 0.620753 -1.6428 1150
-3.24665 0.621777 -1.63281 1249
-3.23827 0.620171 -1.61529 1303
-3.25725 0.623805 -1.61277 1260
-3.26249 0.62481 -1.60273 1124
-3.26771 0.62581 -1.59266 952
-5.38203 1.03073 -2.70371 828
-5.39065 1.03238 -2.68684 684
-5.41304 1.03667 -2.67719 574
-5.57395 1.06748 -2.73936 602
-5.5688 1.0665 -2.71473 641
-5.57745 1.06815 -2.69726 738
-5.58604 1.0698 -2.67977 705
-5.59458 1.07144 -2.66225 553
-5.67288 1.08643 -2.67955 527
-5.68142 1.08807 -2.66175 449
-5.91399 1.13261 -2.75403 481
-5.95081 1.13966 -2.74913 589
-5.97361 1.14402 -2.73723 756
-6.02453 1.15378 -2.73871 895
-6.03325 1.15545 -2.71978 950
-6.05602 1.15981 -2.70748 928
-6.07877 1.16416 -2.69506 911
-6.15811 1.17936 -2.70878 912
-6.16674 1.18101 -2.68943 1095
-6.17531 1.18265 -2.67004 1290
-6.19803 1.187 -2.65706 1187
-6.22072 1.19135 -2.64396 709
-6.48566 1.24209 -2.73848 464
-6.50865 1.24649 -2.72436 499
-6.53161 1.25089 -2.71012 616
-6.55455 1.25528 -2.69577 679
-6.59179 1.26241 -2.68745 818
-6.60035 1.26405 -2.6667 725
-6.73814 1.29044 -2.70048 716
-6.78989 1.30035 -2.69731 700
-6.79848 1.302 -2.67593 582
-6.807 1.30363 -2.65451 525
-6.9021 1.32184 -2.66834 535
-6.99734 1.34008 -2.68158 519
-7.19406 1.37776 -2.73473 549
-7.20277 1.37942 -2.71205 492
-7.29847 1.39775 -2.72349 588
-7.30713 1.39941 -2.70047 624
-7.35937 1.40942 -2.69422 527
-7.35338 1.40827 -2.66546 519
-7.37645 1.41269 -2.64777 509
-7.53086 1.44226 -2.67908 365
-7.53939 1.44389 -2.65532 314
-7.87847 1.50883 -2.72469 277
-7.94579 1.52172 -2.7209 345
-7.96913 1.52619 -2.70103 385
-7.97772 1.52784 -2.67586 337
-7.98624 1.52947 -2.65066 291
-8.28547 1.58677 -2.63852 254
-8.80812 1.68687 -2.69036 253
-8.81667 1.68851 -2.6625 285
-3.71893 0.727576 -2.79022 336
-3.71558 0.726921 -2.76893 348
-3.7244 0.728646 -2.75739 395
-3.73318 0.730365 -2.74584 452
-3.7296 0.729665 -2.72461 475
-3.73829 0.731364 -2.71304 505
-3.74694 0.733056 -2.70143 486
-3.73071 0.729881 -2.67077 485
-3.73923 0.731548 -2.65919 462
-3.82258 0.747854 -2.7042 441
-3.8312 0.749541 -2.69233 510
-3.86485 0.756125 -2.69914 493
-3.88602 0.760266 -2.69644 557
-3.89462 0.761948 -2.68437 600
-3.90318 0.763623 -2.67226 515
-3.92435 0.767765 -2.66932 494
-3.93286 0.76943 -2.65712 489
-4.08111 0.798434 -2.74513 514
-4.08986 0.800146 -2.73243 549
-4.09857 0.801849 -2.7197 592
-4.09444 0.801042 -2.69795 687
-4.09022 0.800217 -2.67625 737
-4.15014 0.811939 -2.69915 689
-4.15874 0.813622 -2.68622 710
-4.16731 0.815298 -2.67327 629
-4.21462 0.824553 -2.68664 534
-4.33978 0.849041 -2.75218 547
-4.34855 0.850756 -2.73865 669
-4.35727 0.852463 -2.72508 721
-4.37899 0.856712 -2.72011 861
-4.40072 0.860963 -2.71502 922
-4.40937 0.862656 -2.70129 771
-4.41798 0.86434 -2.68753 645
-4.43969 0.868587 -2.68219 626
-4.51408 0.88314 -2.71037 823
-4.52271 0.88483 -2.69628 959
-4.55774 0.891683 -2.6988 908
-4.60608 0.90114 -2.7094 943
-4.62798 0.905425 -2.70324 942
-4.6366 0.90711 -2.68878 875
-4.64517 0.908787 -2.6743 767
-4.68038 0.915677 -2.676 659
-4.68891 0.917345 -2.66137 565
-4.6974 0.919005 -2.64671 531
-4.89373 0.957416 -2.74374 544
-4.90247 0.959126 -2.72843 686
-4.91116 0.960826 -2.71308 806
-4.9333 0.965157 -2.70556 1023
-4.9284 0.964198 -2.68232 1074
-4.93694 0.965871 -2.66689 915
-3.20889 0.627791 -1.66335 737
-3.21429 0.628848 -1.65345 662
-3.20605 0.627236 -1.6359 562
-4.99793 0.977802 -2.6201 446
-5.01995 0.982109 -2.61199 444
-5.23355 1.0239 -2.70878 407
-5.26959 1.03095 -2.70729 440
-5.29194 1.03532 -2.69818 560
-5.38306 1.05315 -2.7258 732
-5.39174 1.05485 -2.70892 891
-5.40037 1.05653 -2.692 894
-5.39512 1.05551 -2.66783 790
-5.40362 1.05717 -2.6509 609
-5.56459 1.08866 -2.71256 540
-5.57323 1.09035 -2.6951 651
-5.58181 1.09203 -2.6776 752
-5.59034 1.0937 -2.66008 873
-5.59882 1.09536 -2.64253 843
-5.62121 1.09974 -2.63187 701
-5.67159 1.1096 -2.63486 628
-5.67999 1.11124 -2.61704 509
-5.94101 1.16231 -2.7214 422
-5.96374 1.16675 -2.70946 604
-5.97236 1.16844 -2.69071 787
-6.03733 1.18115 -2.69854 906
-6.06005 1.1856 -2.68617 949
-6.0686 1.18727 -2.66711 944
-6.09126 1.1917 -2.65454 947
-6.09971 1.19336 -2.63538 956
-6.17912 1.20889 -2.64832 913
-6.18755 1.21054 -2.62888 1042
-6.21017 1.21497 -2.61574 979
-6.21851 1.2166 -2.5962 610
-6.4981 1.2713 -2.69524 460
-6.50668 1.27298 -2.67478 518
-6.54383 1.28024 -2.66659 675
-6.56666 1.28471 -2.65208 766
-6.60382 1.29198 -2.64351 829
-6.54036 1.27957 -2.59264 681
-6.73574 1.31779 -2.6496 762
-6.80182 1.33072 -2.65205 710
-6.73812 1.31825 -2.60124 561
-6.90533 1.35097 -2.64411 448
-6.92822 1.35545 -2.62812 516
-7.00901 1.37125 -2.63494 584
-7.0174 1.37289 -2.61284 627
-7.21447 1.41145 -2.66404 558
-7.29563 1.42733 -2.66925 625
-7.30413 1.42899 -2.64622 632
-7.32712 1.43349 -2.62867 526
-7.33549 1.43513 -2.60554 507
-7.34379 1.43675 -2.58239 463
-7.67368 1.50129 -2.67714 330
-7.68219 1.50296 -2.6529 258
-7.8017 1.52633 -2.64087 270
-7.95696 1.55671 -2.66794 309
-7.98015 1.56125 -2.64792 371
-7.98858 1.5629 -2.62269 297
-8.07059 1.57894 -2.62259 270
-8.28753 1.62138 -2.60952 266
-8.29584 1.62301 -2.58331 282
-8.58544 1.67967 -2.64815 294
-8.62352 1.68712 -2.63047 290
-8.81841 1.72525 -2.63167 253
-8.82678 1.72688 -2.60375 269
-1.16608 0.228134 -0.00650671 258
-1.15089 0.225162 -0.00180127 286
-1.15117 0.225216 0.00148009 290
-1.15143 0.225268 0.00476231 282
-1.15169 0.225318 0.00804536 272
-1.15194 0.225366 0.0113292 255
-3.69815 0.738199 -2.81494 331
-3.69494 0.737558 -2.79362 352
-3.70383 0.739332 -2.78215 391
-3.71268 0.741099 -2.77065 441
-3.7215 0.742859 -2.75912 458
-3.71799 0.742159 -2.73788 476
-3.70207 0.738981 -2.70706 465
-3.71069 0.740702 -2.69557 467
-3.71928 0.742416 -2.68404 439
-3.80227 0.758982 -2.72961 421
-3.8234 0.7632 -2.72727 500
-3.84455 0.767421 -2.72483 502
-3.86572 0.771647 -2.72227 586
-3.86186 0.770877 -2.7009 640
-3.87046 0.772594 -2.68889 541
-3.90419 0.779326 -2.69541 500
-3.91277 0.78104 -2.68326 461
-4.07298 0.81302 -2.78146 423
-4.06916 0.812258 -2.75962 468
-4.09064 0.816545 -2.75606 540
-4.07396 0.813216 -2.72516 607
-4.06989 0.812402 -2.70344 652
-4.12961 0.824324 -2.72674 632
-4.13829 0.826057 -2.71387 655
-4.15977 0.830343 -2.70988 584
-4.21984 0.842335 -2.7324 530
-4.31877 0.862082 -2.78103 582
-4.32761 0.863848 -2.76756 695
-4.33642 0.865605 -2.75405 732
-4.35815 0.869943 -2.74922 884
-4.3799 0.874284 -2.74428 971
-4.38863 0.876027 -2.73061 815
-4.39732 0.877762 -2.71691 686
-4.41904 0.882099 -2.71171 660
-4.49319 0.8969 -2.74039 850
-4.50191 0.898641 -2.72635 992
-4.52375 0.902999 -2.72069 922
-4.58513 0.915252 -2.74003 885
-4.60706 0.919629 -2.73402 880
-4.61576 0.921365 -2.71962 836
-4.62441 0.923093 -2.70518 757
-4.65959 0.930115 -2.70712 677
-4.66821 0.931835 -2.69255 586
-4.67678 0.933546 -2.67795 528
-4.73874 0.945915 -2.6956 473
-4.88117 0.974345 -2.76103 560
-4.88995 0.976098 -2.74574 696
-4.89869 0.977841 -2.73043 890
-4.89391 0.976889 -2.7072 999
-4.90253 0.978609 -2.69187 938
-4.9111 0.980319 -2.67652 727
-4.91962 0.98202 -2.66114 492
-4.92809 0.983711 -2.64573 392
-5.24882 1.04773 -2.80692 476
-5.25775 1.04951 -2.79045 594
-3.19549 0.637862 -1.62002 622
-3.20076 0.638913 -1.61016 673
-3.20599 0.639957 -1.60028 694
-5.3614 1.07021 -2.7616 603
-5.3839 1.0747 -2.75219 806
-5.37891 1.0737 -2.72792 903
-5.37383 1.07269 -2.70371 866
-5.38243 1.0744 -2.68684 649
-5.44621 1.08714 -2.6989 539
-5.53779 1.10541 -2.72497 653
-5.56031 1.10991 -2.71473 799
-5.56895 1.11163 -2.69726 947
-5.57753 1.11335 -2.67977 917
-5.59997 1.11783 -2.66926 788
-5.63635 1.12509 -2.66561 670
-5.6588 1.12957 -2.65483 522
-5.90497 1.17871 -2.75403 424
-5.94173 1.18605 -2.74913 599
-5.95047 1.18779 -2.73044 772
-6.01534 1.20074 -2.73871 841
-6.03812 1.20529 -2.72648 878
-6.04679 1.20702 -2.70748 876
-6.0554 1.20874 -2.68845 882
-6.07808 1.21326 -2.67596 925
-6.08659 1.21496 -2.65683 849
-6.15172 1.22796 -2.66357 781
-6.23115 1.24382 -2.67635 749
-6.26808 1.25119 -2.66949 589
-6.30503 1.25857 -2.66242 570
-6.3135 1.26026 -2.64257 589
-6.52166 1.30181 -2.71012 663
-6.53027 1.30353 -2.68957 783
-6.58174 1.3138 -2.68745 794
-6.51866 1.30121 -2.63616 735
-6.71352 1.34011 -2.69442 763
-6.7939 1.35615 -2.70333 776
-6.71621 1.34064 -2.64608 596
-6.88302 1.37394 -2.69006 458
-6.90599 1.37853 -2.67422 528
-6.98667 1.39463 -2.68158 637
-6.9952 1.39633 -2.65953 664
-7.07601 1.41246 -2.66614 630
-7.27285 1.45176 -2.71779 608
-7.28149 1.45348 -2.69482 581
-7.30458 1.45809 -2.67742 501
-7.31309 1.45979 -2.65435 469
-7.64181 1.52541 -2.75236 400
-7.65055 1.52715 -2.7282 396
-7.64463 1.52597 -2.69861 300
-7.77871 1.55273 -2.69279 265
-7.77262 1.55152 -2.66292 271
-7.95698 1.58832 -2.70103 325
-8.06828 1.61053 -2.71209 288
-8.12096 1.62105 -2.70195 346
-8.14425 1.6257 -2.68133 277
-8.24963 1.64673 -2.65969 284
-8.50887 1.69848 -2.71755 284
-8.54703 1.7061 -2.70039 337
-8.57039 1.71076 -2.67817 358
-3.68314 0.750053 -2.80506 295
-3.69205 0.751869 -2.79362 321
-3.70093 0.753678 -2.78215 350
-3.70978 0.755479 -2.77065 388
-3.71859 0.757274 -2.75912 402
-3.72737 0.75906 -2.74756 417
-3.68687 0.750814 -2.69742 425
-3.69545 0.752562 -2.68597 422
-3.71637 0.756821 -2.68404 389
-3.7993 0.77371 -2.72961 400
-3.83284 0.780539 -2.73675 482
-3.84154 0.782312 -2.72483 495
-3.85021 0.784077 -2.71287 592
-3.85884 0.785835 -2.7009 639
-3.86744 0.787585 -2.68889 534
-3.90114 0.794448 -2.69541 485
-3.90971 0.796195 -2.68326 422
-4.0698 0.828796 -2.78146 367
-4.07864 0.830597 -2.76877 428
-4.11282 0.837556 -2.77429 533
-4.10892 0.836763 -2.75239 545
-4.06671 0.828166 -2.70344 578
-4.13916 0.84292 -2.73573 574
-4.13506 0.842086 -2.71387 584
-4.18217 0.851679 -2.7277 545
-4.24225 0.863915 -2.75013 522
-4.31539 0.87881 -2.78103 573
-4.33714 0.883238 -2.77634 687
-4.34596 0.885035 -2.7628 729
-4.35475 0.886824 -2.74922 900
-4.37648 0.891249 -2.74428 1007
-4.3852 0.893026 -2.73061 862
-4.39388 0.894794 -2.71691 754
-4.41559 0.899215 -2.71171 716
-4.48969 0.914303 -2.74039 865
-4.4984 0.916078 -2.72635 1012
-4.52021 0.92052 -2.72069 946
-4.54204 0.924964 -2.71492 858
-4.60346 0.937473 -2.73402 839
-4.61215 0.939243 -2.71962 834
-4.6208 0.941005 -2.70518 793
-4.65595 0.948163 -2.70712 752
-4.66456 0.949916 -2.69255 668
-4.67313 0.95166 -2.67795 569
-3.10645 0.632613 -1.71122 691
-3.11199 0.633741 -1.70163 870
-3.1175 0.634864 -1.69203 918
-3.10956 0.633247 -1.67447 1251
-3.14188 0.63983 -1.68067 1709
-3.14733 0.640939 -1.67098 1936
-3.15275 0.642042 -1.66126 2141
-3.15813 0.643139 -1.65153 2256
-3.16349 0.64423 -1.64178 2141
-3.16882 0.645315 -1.63201 2088
-3.17412 0.646394 -1.62223 1926
-3.17938 0.647466 -1.61243 1474
-3.18462 0.648533 -1.60261 1129
-3.18982 0.649593 -1.59278 884
-5.30247 1.07982 -2.73176 659
-5.36599 1.09276 -2.74478 691
-5.37471 1.09453 -2.72792 772
-5.36963 1.0935 -2.70371 736
-5.46088 1.11208 -2.73054 642
-5.45576 1.11104 -2.70614 571
-5.53346 1.12686 -2.72497 617
-5.55597 1.13145 -2.71473 749
-5.5646 1.1332 -2.69726 895
-5.58706 1.13778 -2.68683 877
-5.5956 1.13952 -2.66926 788
-5.60409 1.14125 -2.65167 666
-5.61252 1.14296 -2.63405 492
-5.80255 1.18166 -2.70586 469
-5.93709 1.20906 -2.74913 569
-5.94583 1.21084 -2.73044 712
-5.89836 1.20117 -2.68473 771
-6.04746 1.23154 -2.73318 755
-6.04207 1.23044 -2.70748 761
-6.05067 1.23219 -2.68845 798
-6.07333 1.23681 -2.67596 879
-6.11012 1.2443 -2.66987 799
-6.13276 1.24891 -2.65709 631
-6.25464 1.27373 -2.6892 653
-6.27738 1.27836 -2.67587 586
-6.3001 1.28299 -2.66242 603
-6.30857 1.28471 -2.64257 610
-6.50231 1.32416 -2.70388 597
-6.52517 1.32882 -2.68957 735
-6.53372 1.33056 -2.66898 762
-6.52789 1.32937 -2.64227 804
-6.70828 1.36611 -2.69442 764
-6.73119 1.37078 -2.67926 810
-6.72533 1.36958 -2.65205 625
-6.89203 1.40353 -2.69598 508
-6.9006 1.40527 -2.67422 575
-6.90909 1.407 -2.65243 649
-6.98974 1.42343 -2.65953 639
-7.07049 1.43987 -2.66614 648
-7.09344 1.44455 -2.6495 636
-7.2758 1.48168 -2.69482 484
-7.31338 1.48934 -2.68302 456
-7.32191 1.49107 -2.6599 438
-7.60675 1.54908 -2.74135 351
-7.61545 1.55085 -2.71729 411
-7.62408 1.55261 -2.6932 371
-7.63263 1.55435 -2.66908 289
-7.72879 1.57393 -2.67684 261
-7.75192 1.57864 -2.65765 258
-7.84824 1.59826 -2.66446 280
-7.87137 1.60297 -2.6448 300
-8.09994 1.64952 -2.69682 361
-8.1232 1.65425 -2.67625 299
-8.49352 1.72966 -2.74447 285
-8.50222 1.73144 -2.71755 342
-8.54036 1.7392 -2.70039 367
-8.5637 1.74396 -2.67817 388
-1.389 0.282862 -0.185993 268
-1.38984 0.283034 -0.181941 269
-1.37547 0.280108 -0.174682 261
-3.68019 0.764382 -2.80506 254
-3.6891 0.766233 -2.79362 283
-3.69797 0.768076 -2.78215 301
-3.70681 0.769912 -2.77065 327
-3.71562 0.77174 -2.75912 339
-3.72438 0.773561 -2.74756 352
-3.68392 0.765157 -2.69742 374
-3.6925 0.766939 -2.68597 370
-3.70104 0.768713 -2.67448 330
-3.82104 0.793636 -2.74865 391
-3.84219 0.79803 -2.74623 475
-3.83847 0.797257 -2.72483 500
-3.84713 0.799056 -2.71287 604
-3.85575 0.800848 -2.7009 646
-3.86434 0.802631 -2.68889 538
-3.87289 0.804407 -2.67685 472
-3.90659 0.811405 -2.68326 377
-4.06655 0.844629 -2.78146 363
-4.08803 0.849091 -2.77793 462
-4.10953 0.853556 -2.77429 580
-4.10564 0.852748 -2.75239 569
-4.12711 0.857209 -2.74861 571
-4.13585 0.859023 -2.73573 563
-4.14454 0.860828 -2.72282 555
-4.23008 0.878595 -2.76335 565
-4.2517 0.883086 -2.759 546
-4.31194 0.895598 -2.78103 596
-4.33367 0.900111 -2.77634 726
-4.34249 0.901943 -2.7628 775
-4.35126 0.903765 -2.74922 958
-4.36 0.90558 -2.73562 1080
-4.38169 0.910086 -2.73061 908
-4.39037 0.911888 -2.71691 806
-4.41206 0.916393 -2.71171 752
-4.48609 0.93177 -2.74039 834
-4.4948 0.933578 -2.72635 972
-4.5166 0.938106 -2.72069 914
-4.5384 0.942635 -2.71492 806
-4.58659 0.952643 -2.72569 735
-4.60846 0.957186 -2.71962 725
-4.6171 0.958981 -2.70518 701
-4.65223 0.966276 -2.70712 703
-4.66083 0.968063 -2.69255 664
-4.78921 0.994728 -2.75095 596
-4.81129 0.999313 -2.74401 636
-3.09613 0.643073 -1.69361 828
-3.10162 0.644212 -1.68405 1046
-3.10707 0.645344 -1.67447 1480
-3.11249 0.646471 -1.66488 1634
-3.11789 0.647591 -1.65527 1420
-3.13674 0.651507 -1.65345 1308
-3.1421 0.65262 -1.64376 1110
-3.14743 0.653726 -1.63406 905
-3.15273 0.654827 -1.62434 785
-3.15799 0.655921 -1.6146 694
-3.14963 0.654184 -1.59725 591
-5.23984 1.08833 -2.74234 709
-5.24855 1.09013 -2.72588 791
-5.27088 1.09477 -2.71684 667
-5.29321 1.09941 -2.7077 544
-5.43901 1.12969 -2.76478 638
-5.46153 1.13437 -2.755 732
-5.47027 1.13619 -2.73783 744
-5.46518 1.13513 -2.71338 695
-5.45999 1.13405 -2.689 647
-5.53769 1.15019 -2.70758 715
-5.56014 1.15485 -2.69726 821
-5.56871 1.15663 -2.67977 790
-5.59112 1.16129 -2.66926 710
-5.5996 1.16305 -2.65167 606
-5.78926 1.20244 -2.72409 469
-5.79791 1.20424 -2.70586 494
-5.82048 1.20893 -2.69444 524
-5.88505 1.22234 -2.70327 648
-5.87961 1.22121 -2.67799 752
-5.87408 1.22006 -2.65276 660
-6.0513 1.25687 -2.71413 677
-6.05991 1.25866 -2.69506 746
-6.09669 1.26629 -2.68909 888
-6.10523 1.26807 -2.66987 869
-6.12785 1.27277 -2.65709 619
-6.3063 1.30983 -2.71492 662
-6.31492 1.31162 -2.69502 602
-6.29506 1.3075 -2.66242 604
-6.28929 1.3063 -2.63627 576
-6.48286 1.3465 -2.69763 518
-6.50569 1.35124 -2.68337 640
-6.51421 1.35301 -2.66283 779
-6.52266 1.35477 -2.64227 877
-6.61698 1.37436 -2.65805 768
-6.7258 1.39696 -2.67926 903
-6.73431 1.39873 -2.65802 735
-6.91527 1.43632 -2.70783 597
-6.90947 1.43511 -2.68009 635
-6.97563 1.44885 -2.68158 681
-6.98414 1.45062 -2.65953 627
-7.05038 1.46438 -2.6604 606
-7.10223 1.47515 -2.65519 640
-7.28446 1.513 -2.70047 471
-7.30753 1.51779 -2.68302 465
-7.34508 1.52559 -2.67101 440
-7.58613 1.57565 -2.73584 387
-7.58025 1.57443 -2.70637 498
-7.58884 1.57622 -2.68238 474
-7.61194 1.58101 -2.66372 369
-7.72261 1.604 -2.67684 266
-7.84196 1.62879 -2.66446 302
-7.86507 1.63359 -2.6448 365
-8.07879 1.67798 -2.69169 335
-8.08733 1.67975 -2.66609 304
-8.47201 1.75965 -2.73948 274
-8.49542 1.76451 -2.71755 313
-8.51878 1.76937 -2.6955 334
-8.54209 1.77421 -2.67333 305
-1.06949 0.222136 -0.116643 255
-3.57291 0.758704 -2.6825 276
-3.59364 0.763106 -2.68114 301
-3.60216 0.764915 -2.66996 298
-3.61065 0.766718 -2.65876 314
-3.6191 0.768513 -2.64753 308
-3.65216 0.775532 -2.65546 278
-3.71 0.787815 -2.68232 311
-3.70615 0.786996 -2.66125 307
-3.82628 0.812506 -2.735 313
-3.83496 0.814351 -2.72307 392
-3.84361 0.816188 -2.71112 464
-3.85223 0.818017 -2.69914 502
-3.8608 0.819838 -2.68713 594
-3.86934 0.821651 -2.67509 612
-3.87785 0.823457 -2.66303 506
-3.88631 0.825254 -2.65093 435
-3.92001 0.832411 -2.65712 327
-4.09311 0.869168 -2.76336 368
-4.10189 0.871031 -2.75057 488
-4.11062 0.872886 -2.73776 602
-4.11932 0.874732 -2.72492 598
-4.08964 0.868431 -2.6852 594
-4.14939 0.881119 -2.70805 573
-4.15799 0.882945 -2.69509 556
-4.19227 0.890225 -2.69974 533
-4.23951 0.900255 -2.71299 484
-4.3256 0.918538 -2.75218 507
-4.34728 0.923141 -2.74735 630
-4.35601 0.924994 -2.73374 689
-4.36469 0.926837 -2.72011 887
-4.37333 0.928671 -2.70645 1027
-4.39497 0.933267 -2.70129 898
-4.40355 0.935089 -2.68753 855
-4.41209 0.936902 -2.67375 809
-4.49933 0.955429 -2.71037 760
-4.50794 0.957256 -2.69628 866
-4.54286 0.964671 -2.6988 834
-4.59103 0.974902 -2.7094 741
-4.61287 0.979538 -2.70324 700
-4.62145 0.981361 -2.68878 719
-4.61671 0.980355 -2.66614 712
-4.63849 0.984979 -2.65978 714
-4.66027 0.989603 -2.6533 676
-4.6687 0.991394 -2.63869 559
-4.83761 1.02726 -2.7198 555
-3.0772 0.653441 -1.65702 647
-3.08257 0.654581 -1.64752 713
-3.10136 0.658571 -1.64584 729
-4.97967 1.05743 -2.72135 834
-4.98831 1.05926 -2.70571 893
-5.02395 1.06683 -2.70548 893
-5.08672 1.08016 -2.72039 926
-5.09536 1.08199 -2.70441 883
-5.10395 1.08382 -2.68839 756
-5.11248 1.08563 -2.67235 642
-5.25737 1.1164 -2.73128 591
-5.26604 1.11824 -2.71475 760
-5.26097 1.11716 -2.69077 894
-5.26951 1.11898 -2.67422 815
-5.29174 1.1237 -2.66497 654
-5.45149 1.15762 -2.7284 638
-5.46015 1.15946 -2.71124 827
-5.46876 1.16129 -2.69405 932
-5.46349 1.16017 -2.66968 911
-5.47197 1.16197 -2.65248 817
-5.52199 1.17259 -2.65643 691
-5.5582 1.18028 -2.65306 760
-5.58053 1.18502 -2.64253 703
-5.60285 1.18976 -2.63187 588
-5.77861 1.22708 -2.69676 494
-5.80115 1.23187 -2.68538 514
-5.80967 1.23368 -2.66709 519
-5.83215 1.23845 -2.65552 555
-5.84058 1.24024 -2.63713 650
-5.89112 1.25097 -2.63867 738
-5.8995 1.25275 -2.62009 680
-6.06287 1.28744 -2.67367 577
-6.11371 1.29824 -2.67409 730
-6.12219 1.30004 -2.65479 1022
-6.13062 1.30183 -2.63547 1085
-6.13899 1.30361 -2.61612 786
-6.31764 1.34154 -2.67275 639
-6.34033 1.34636 -2.65909 617
-6.33454 1.34513 -2.63282 596
-6.37141 1.35296 -2.6252 535
-6.46537 1.37292 -2.64198 498
-6.48805 1.37773 -2.62766 557
-6.5107 1.38254 -2.61322 731
-6.54766 1.39039 -2.60467 887
-6.62766 1.40738 -2.6138 828
-6.73651 1.43049 -2.63429 981
-6.74487 1.43227 -2.61299 870
-6.92598 1.47073 -2.66159 606
-6.93443 1.47252 -2.63968 644
-6.98611 1.48349 -2.63494 734
-6.99448 1.48527 -2.61284 649
-7.10407 1.50854 -2.63019 669
-7.12691 1.51339 -2.6133 673
-7.30928 1.55212 -2.65732 517
-7.33223 1.55699 -2.63967 435
-7.36969 1.56495 -2.62736 447
-7.58182 1.60999 -2.67972 453
-7.57574 1.6087 -2.65034 644
-7.59874 1.61359 -2.63164 622
-7.60709 1.61536 -2.60756 418
-7.73235 1.64196 -2.62521 280
-7.85151 1.66726 -2.61204 312
-7.87446 1.67213 -2.59223 390
-7.88269 1.67388 -2.56726 292
-8.08195 1.71619 -2.60705 275
-8.09023 1.71795 -2.58141 252
-8.50468 1.80596 -2.66076 262
-8.52788 1.81089 -2.63856 258
-8.72833 1.85345 -2.67318 264
-8.7368 1.85525 -2.64546 294
-1.34224 0.285024 -0.167119 277
-1.34303 0.28519 -0.163208 297
-1.3438 0.285354 -0.159294 294
-1.08737 0.230903 -0.0972822 313
-1.08794 0.231024 -0.0941929 320
-1.0885 0.231143 -0.0911018 277
-1.13478 0.240969 -0.0964363 265
-3.69465 0.79919 -2.67276 263
-3.66603 0.793 -2.6327 256
-3.82317 0.82699 -2.735 326
-3.83185 0.828868 -2.72307 409
-3.84049 0.830738 -2.71112 481
-3.8491 0.832599 -2.69914 527
-3.85767 0.834453 -2.68713 597
-3.8662 0.836299 -2.67509 593
-3.8747 0.838136 -2.66303 491
-3.89576 0.842691 -2.66013 421
-3.91683 0.84725 -2.65712 321
-4.07714 0.881926 -2.75425 381
-4.08587 0.883816 -2.7415 511
-4.10729 0.888447 -2.73776 624
-4.11597 0.890326 -2.72492 623
-4.08632 0.883912 -2.6852 623
-4.13323 0.894059 -2.69915 575
-4.1418 0.895912 -2.68622 544
-4.15032 0.897757 -2.67327 514
-4.2747 0.92466 -2.73934 490
-4.3221 0.934913 -2.75218 543
-4.34376 0.939598 -2.74735 653
-4.35247 0.941483 -2.73374 702
-4.36115 0.943359 -2.72011 862
-4.36978 0.945227 -2.70645 982
-4.3914 0.949904 -2.70129 859
-4.39998 0.951759 -2.68753 812
-4.40851 0.953604 -2.67375 770
-4.43011 0.958277 -2.66834 696
-4.51742 0.977164 -2.70464 750
-4.53917 0.981868 -2.6988 766
-4.57412 0.989428 -2.70112 727
-4.59591 0.994141 -2.69501 676
-4.6177 0.998855 -2.68878 652
-4.61297 0.997831 -2.66614 639
-4.64802 1.00541 -2.66789 682
-4.65649 1.00724 -2.6533 699
-4.66491 1.00907 -2.63869 581
-4.87379 1.05425 -2.74374 555
-4.88249 1.05613 -2.72843 630
-4.89115 1.058 -2.71308 646
-4.94007 1.06859 -2.72126 747
-4.97563 1.07628 -2.72135 902
-4.98426 1.07815 -2.70571 977
-5.00636 1.08293 -2.69776 946
-5.06906 1.09649 -2.71272 856
-5.07767 1.09835 -2.69677 801
-5.08622 1.1002 -2.6808 696
-5.10834 1.10498 -2.67235 600
-5.2531 1.1363 -2.73128 588
-5.26177 1.13817 -2.71475 799
-5.2567 1.13708 -2.69077 987
-5.27894 1.14189 -2.68159 980
-5.30116 1.1467 -2.67229 822
-5.30964 1.14853 -2.6556 728
-5.45572 1.18013 -2.71124 875
-5.46432 1.18199 -2.69405 1001
-5.45906 1.18085 -2.66968 997
-5.46753 1.18268 -2.65248 889
-5.47595 1.1845 -2.63525 703
-5.55369 1.20132 -2.65306 678
-5.5621 1.20314 -2.63556 628
-5.73748 1.24107 -2.7011 634
-5.77393 1.24896 -2.69676 548
-5.79644 1.25383 -2.68538 540
-5.80496 1.25567 -2.66709 545
-5.82742 1.26053 -2.65552 578
-5.83584 1.26235 -2.63713 647
-5.85826 1.2672 -2.62536 679
-5.90878 1.27813 -2.6267 657
-5.91712 1.27993 -2.60805 555
-6.10875 1.32138 -2.67409 731
-6.11723 1.32322 -2.65479 1094
-6.12565 1.32504 -2.63547 1213
-6.13401 1.32685 -2.61612 926
-6.1565 1.33171 -2.60307 609
-6.33519 1.37036 -2.65909 627
-6.34362 1.37219 -2.63906 610
-6.36624 1.37708 -2.6252 559
-6.44587 1.39431 -2.63583 498
-6.46851 1.3992 -2.62155 540
-6.50542 1.40719 -2.61322 645
-6.54234 1.41517 -2.60467 791
-6.62228 1.43247 -2.6138 839
-6.73105 1.45599 -2.63429 997
-6.7394 1.4578 -2.61299 936
-6.74769 1.45959 -2.59166 602
-6.94321 1.50189 -2.64546 614
-6.98045 1.50994 -2.63494 769
-7.00324 1.51487 -2.61852 710
-7.09831 1.53544 -2.63019 752
-7.12113 1.54037 -2.6133 704
-7.12942 1.54216 -2.59074 520
-7.21019 1.55964 -2.59566 427
-7.45088 1.6117 -2.66009 418
-7.4884 1.61982 -2.64728 500
-7.55504 1.63423 -2.64498 684
-7.578 1.6392 -2.62633 680
-7.58633 1.641 -2.6023 431
-7.74068 1.67439 -2.63043 278
-7.84514 1.69698 -2.61204 293
-7.86808 1.70194 -2.59223 342
-7.8763 1.70372 -2.56726 257
-8.72125 1.88649 -2.67318 263
-8.72971 1.88832 -2.64546 344
-1.31007 0.283381 -0.164527 266
-1.31084 0.283548 -0.160716 431
-1.32677 0.286994 -0.160056 494
-1.32753 0.287159 -0.156191 491
-1.3131 0.284036 -0.14927 404
-1.1315 0.244754 -0.109386 261
-1.1321 0.244885 -0.106151 338
-1.1327 0.245014 -0.102915 407
-1.13328 0.245141 -0.0996765 404
-1.11863 0.241971 -0.0936272 390
-1.11919 0.242091 -0.0904343 366
-1.11974 0.24221 -0.0872396 282
-3.58258 0.789622 -2.71494 283
-3.59119 0.79152 -2.70378 268
-3.58759 0.790726 -2.68284 276
-3.5961 0.792602 -2.67166 269
-3.78128 0.833417 -2.76276 256
-3.79004 0.835347 -2.75096 333
-3.81111 0.839992 -2.74865 412
-3.81983 0.841913 -2.73675 477
-3.8285 0.843825 -2.72483 526
-3.83714 0.845729 -2.71287 570
-3.84574 0.847625 -2.7009 551
-3.85431 0.849513 -2.68889 479
-3.87536 0.854154 -2.68613 429
-3.89644 0.858799 -2.68326 349
-4.05599 0.893964 -2.78146 394
-4.0648 0.895906 -2.76877 531
-4.07357 0.897839 -2.75606 634
-4.0823 0.899764 -2.74331 640
-4.0529 0.893284 -2.70344 655
-4.0742 0.897979 -2.69976 596
-4.12102 0.908298 -2.71387 542
-4.12963 0.910195 -2.70097 515
-4.13819 0.912082 -2.68805 452
-4.30074 0.94791 -2.78103 502
-4.32242 0.952686 -2.77634 627
-4.33121 0.954625 -2.7628 711
-4.32705 0.953707 -2.74052 892
-4.33573 0.955621 -2.72696 1038
-4.35734 0.960385 -2.72199 914
-4.33998 0.956558 -2.69117 887
-4.34851 0.958438 -2.67757 838
-4.4092 0.971814 -2.69792 695
-4.50928 0.993872 -2.74325 655
-4.51797 0.995788 -2.7291 701
-4.55287 1.00348 -2.73166 708
-4.56153 1.00539 -2.71737 663
-4.57014 1.00729 -2.70305 614
-4.59191 1.01209 -2.69694 584
-4.62692 1.0198 -2.69892 650
-4.63547 1.02169 -2.68439 703
-4.64398 1.02356 -2.66984 597
-4.85201 1.06941 -2.77628 571
-4.8608 1.07135 -2.76103 651
-4.86954 1.07328 -2.74574 676
-4.91838 1.08404 -2.75425 730
-4.9539 1.09187 -2.75457 884
-4.96263 1.09379 -2.73899 956
-4.98476 1.09867 -2.73119 909
-5.03383 1.10949 -2.7388 767
-5.05601 1.11437 -2.73068 710
-5.06466 1.11628 -2.71477 626
-5.07326 1.11818 -2.69883 565
-5.23107 1.15296 -2.76637 559
-5.23983 1.15489 -2.74989 789
-5.24854 1.15681 -2.73338 1060
-5.27084 1.16172 -2.7243 1158
-5.27947 1.16363 -2.7077 1038
-5.30173 1.16853 -2.69843 916
-5.41993 1.19459 -2.74035 889
-5.42861 1.1965 -2.72326 1009
-5.43724 1.1984 -2.70614 1010
-5.44581 1.20029 -2.689 922
-5.45433 1.20217 -2.67183 743
-5.49044 1.21012 -2.66884 639
-5.69265 1.25469 -2.75038 649
-5.70136 1.25661 -2.73241 672
-5.75166 1.2677 -2.73533 572
-5.76032 1.26961 -2.71717 574
-5.78285 1.27457 -2.70586 611
-5.77747 1.27339 -2.68077 667
-5.79994 1.27834 -2.66932 670
-5.82238 1.28329 -2.65775 629
-5.94288 1.30985 -2.69297 626
-5.97947 1.31791 -2.68751 618
-6.08633 1.34146 -2.71489 762
-6.09493 1.34336 -2.69565 1160
-6.10346 1.34524 -2.67639 1319
-6.11194 1.34711 -2.65709 1055
-6.13449 1.35208 -2.6442 740
-6.34097 1.39759 -2.71417 601
-6.32122 1.39324 -2.68144 623
-6.34391 1.39824 -2.66773 578
-6.39498 1.40949 -2.6664 516
-6.43188 1.41763 -2.65857 505
-6.58277 1.45088 -2.69975 639
-6.59132 1.45277 -2.67891 742
-6.61409 1.45778 -2.66411 843
-6.70834 1.47856 -2.67926 957
-6.71682 1.48043 -2.65802 897
-6.73958 1.48544 -2.64267 589
-6.9346 1.52843 -2.69772 560
-6.95752 1.53348 -2.68158 747
-6.96601 1.53535 -2.65953 720
-7.07531 1.55944 -2.67762 740
-7.09821 1.56449 -2.66088 671
-7.10664 1.56635 -2.63838 545
-7.17285 1.58094 -2.63824 473
-7.42738 1.63704 -2.70987 473
-7.45045 1.64212 -2.69181 562
-7.50251 1.6536 -2.68454 674
-7.54007 1.66188 -2.67155 689
-7.56307 1.66695 -2.65299 440
-7.70255 1.69769 -2.67684 289
-7.93232 1.74833 -2.67586 314
-8.01393 1.76632 -2.6763 266
-8.28001 1.82496 -2.71094 277
-8.62295 1.90055 -2.70724 268
-8.66098 1.90893 -2.68941 382
-8.66949 1.91081 -2.66186 293
-1.32379 0.291772 -0.172784 341
-1.30946 0.288612 -0.165674 407
-1.29509 0.285445 -0.158659 419
-1.29584 0.285612 -0.154895 372
-1.13043 0.249154 -0.113722 319
-1.11587 0.245944 -0.10748 409
-1.11647 0.246076 -0.104295 438
-1.11705 0.246205 -0.101108 403
-1.11763 0.246333 -0.0979189 362
-1.10298 0.243104 -0.0919151 298
-3.56375 0.800618 -2.6825 373
-3.58443 0.805263 -2.68114 417
-3.59293 0.807172 -2.66996 385
-3.60139 0.809074 -2.65876 369
-3.60983 0.810969 -2.64753 343
-3.63051 0.815615 -2.64587 278
-3.71281 0.834104 -2.69188 266
-3.78307 0.84989 -2.72787 268
-3.80409 0.854612 -2.72552 337
-3.81273 0.856552 -2.71364 405
-3.8462 0.86407 -2.72052 467
-3.84235 0.863207 -2.69914 516
-3.8634 0.867935 -2.69644 539
-3.87195 0.869855 -2.68437 526
-3.88045 0.871767 -2.67226 484
-3.9015 0.876496 -2.66932 469
